1649, 1649, 1649, 1657, 1649, 1649, 1649, 1641, 1641, 1641, 1641, 1641, 1641, 1649, 1649, 1649, 1649, 1649, 1657, 1649, 1649, 1649, 1649, 1649, 1649, 1649, 1641, 1641, 1641, 1641, 1641, 1649, 1641, 1649, 1649, 1649, 1649, 1649, 1649, 1649, 1649, 1649, 1641, 1641, 1641, 1641, 1641, 1641, 1641, 1641, 1641, 1641, 1641, 1641, 1641, 1641, 1641, 1641, 1641, 1641, 1641, 1641, 1634, 1634, 1634, 1634, 1634, 1634, 1634, 1634, 1634, 1634, 1641, 1634, 1634, 1634, 1641, 1641, 1634, 1634, 1634, 1634, 1634, 1634, 1634, 1634, 1634, 1634, 1634, 1634, 1634, 1634, 1641, 1634, 1634, 1634, 1634, 1634, 1626, 1626, 1626, 1626, 1626, 1626, 1626, 1626, 1626, 1626, 1626, 1626, 1626, 1626, 1626, 1626, 1618, 1626, 1618, 1618, 1618, 1626, 1618, 1618, 1618, 1618, 1618, 1618, 1611, 1611, 1603, 1611, 1618, 1611, 1611, 1618, 1611, 1611, 1611, 1611, 1611, 1603, 1611, 1611, 1603, 1611, 1618, 1611, 1611, 1611, 1603, 1603, 1603, 1596, 1596, 1596, 1596, 1603, 1603, 1603, 1603, 1603, 1603, 1603, 1603, 1603, 1603, 1596, 1596, 1596, 1596, 1596, 1596, 1596, 1596, 1596, 1596, 1596, 1596, 1596, 1596, 1596, 1596, 1589, 1589, 1589, 1589, 1596, 1596, 1596, 1596, 1596, 1596, 1596, 1596, 1596, 1596, 1596, 1596, 1596, 1589, 1596, 1589, 1596, 1596, 1596, 1596, 1596, 1596, 1596, 1596, 1589, 1589, 1589, 1581, 1589, 1589, 1589, 1589, 1589, 1589, 1589, 1589, 1589, 1589, 1589, 1581, 1581, 1581, 1581, 1581, 1581, 1581, 1581, 1581, 1581, 1581, 1581, 1581, 1589, 1581, 1581, 1581, 1581, 1574, 1574, 1574, 1574, 1574, 1574, 1581, 1581, 1581, 1581, 1581, 1581, 1574, 1574, 1574, 1574, 1574, 1574, 1574, 1574, 1574, 1574, 1581, 1581, 1574, 1574, 1581, 1581, 1581, 1581, 1574, 1574, 1574, 1574, 1574, 1574, 1574, 1574, 1574, 1567, 1567, 1567, 1567, 1567, 1567, 1567, 1567, 1567, 1567, 1567, 1567, 1567, 1567, 1567, 1567, 1567, 1567, 1567, 1567, 1560, 1567, 1560, 1560, 1567, 1560, 1567, 1560, 1567, 1560, 1567, 1567, 1567, 1567, 1567, 1567, 1567, 1567, 1567, 1567, 1567, 1560, 1560, 1560, 1560, 1560, 1560, 1567, 1567, 1567, 1567, 1567, 1567, 1560, 1560, 1560, 1553, 1553, 1553, 1553, 1553, 1546, 1553, 1553, 1553, 1553, 1560, 1560, 1560, 1560, 1553, 1560, 1560, 1560, 1560, 1560, 1560, 1560, 1567, 1560, 1560, 1560, 1560, 1560, 1560, 1560, 1560, 1560, 1560, 1560, 1560, 1560, 1560, 1553, 1553, 1553, 1553, 1553, 1560, 1553, 1560, 1560, 1560, 1560, 1560, 1560, 1560, 1560, 1560, 1567, 1567, 1567, 1567, 1567, 1567, 1567, 1560, 1560, 1560, 1553, 1553, 1553, 1553, 1553, 1553, 1553, 1553, 1553, 1553, 1546, 1553, 1553, 1553, 1553, 1546, 1553, 1553, 1553, 1553, 1553, 1546, 1553, 1553, 1553, 1546, 1546, 1546, 1546, 1546, 1553, 1553, 1553, 1553, 1553, 1553, 1546, 1546, 1546, 1546, 1546, 1546, 1546, 1546, 1553, 1553, 1546, 1553, 1553, 1546, 1546, 1546, 1546, 1546, 1546, 1546, 1546, 1546, 1546, 1546, 1546, 1546, 1546, 1546, 1546, 1546, 1546, 1539, 1546, 1539, 1546, 1546, 1546, 1539, 1539, 1539, 1539, 1546, 1546, 1539, 1539, 1546, 1546, 1546, 1546, 1539, 1546, 1546, 1539, 1539, 1539, 1539, 1539, 1539, 1539, 1539, 1539, 1539, 1539, 1539, 1539
1641, 1641, 1641, 1649, 1649, 1649, 1641, 1641, 1641, 1641, 1634, 1634, 1641, 1641, 1641, 1641, 1649, 1641, 1649, 1649, 1641, 1649, 1649, 1641, 1641, 1641, 1641, 1641, 1641, 1641, 1641, 1641, 1641, 1641, 1641, 1641, 1649, 1641, 1641, 1641, 1641, 1641, 1641, 1641, 1641, 1641, 1641, 1641, 1641, 1641, 1641, 1634, 1634, 1634, 1641, 1641, 1634, 1641, 1641, 1641, 1641, 1641, 1634, 1634, 1634, 1634, 1634, 1634, 1634, 1634, 1634, 1634, 1634, 1634, 1634, 1634, 1634, 1634, 1634, 1634, 1634, 1634, 1634, 1634, 1634, 1634, 1634, 1626, 1634, 1634, 1634, 1634, 1634, 1634, 1626, 1634, 1634, 1626, 1626, 1626, 1626, 1626, 1626, 1626, 1626, 1626, 1618, 1618, 1626, 1626, 1618, 1626, 1626, 1626, 1618, 1618, 1618, 1618, 1618, 1626, 1618, 1618, 1618, 1618, 1618, 1603, 1603, 1603, 1603, 1603, 1611, 1611, 1611, 1611, 1611, 1611, 1611, 1611, 1603, 1603, 1603, 1603, 1603, 1603, 1603, 1611, 1611, 1603, 1603, 1603, 1603, 1596, 1596, 1596, 1596, 1596, 1603, 1603, 1603, 1603, 1603, 1603, 1603, 1603, 1603, 1596, 1596, 1596, 1596, 1596, 1596, 1596, 1589, 1596, 1596, 1596, 1596, 1596, 1596, 1596, 1589, 1589, 1589, 1596, 1589, 1589, 1589, 1589, 1596, 1589, 1596, 1596, 1596, 1589, 1596, 1596, 1596, 1596, 1589, 1589, 1589, 1589, 1589, 1589, 1596, 1596, 1589, 1589, 1589, 1589, 1589, 1589, 1581, 1581, 1581, 1581, 1581, 1581, 1589, 1589, 1589, 1589, 1581, 1581, 1581, 1581, 1581, 1581, 1581, 1581, 1581, 1581, 1581, 1581, 1581, 1581, 1581, 1581, 1581, 1581, 1581, 1574, 1574, 1574, 1574, 1574, 1574, 1574, 1574, 1574, 1574, 1574, 1574, 1574, 1574, 1574, 1574, 1574, 1574, 1574, 1574, 1574, 1574, 1574, 1574, 1574, 1574, 1574, 1574, 1574, 1574, 1574, 1574, 1574, 1574, 1574, 1574, 1574, 1574, 1567, 1567, 1567, 1567, 1567, 1567, 1567, 1567, 1567, 1567, 1567, 1560, 1560, 1560, 1567, 1567, 1567, 1567, 1560, 1560, 1560, 1560, 1553, 1560, 1560, 1560, 1560, 1560, 1567, 1560, 1567, 1560, 1567, 1567, 1560, 1567, 1567, 1567, 1567, 1560, 1560, 1560, 1560, 1560, 1560, 1553, 1553, 1560, 1560, 1560, 1560, 1560, 1560, 1560, 1560, 1560, 1560, 1553, 1553, 1553, 1546, 1546, 1546, 1546, 1546, 1553, 1553, 1553, 1560, 1560, 1560, 1560, 1553, 1553, 1560, 1560, 1560, 1560, 1560, 1560, 1560, 1560, 1553, 1560, 1553, 1560, 1553, 1560, 1560, 1560, 1560, 1560, 1560, 1553, 1553, 1553, 1553, 1553, 1553, 1553, 1553, 1553, 1553, 1553, 1553, 1553, 1553, 1553, 1546, 1546, 1560, 1560, 1560, 1560, 1567, 1560, 1560, 1560, 1560, 1553, 1553, 1553, 1553, 1553, 1553, 1553, 1553, 1553, 1553, 1553, 1553, 1546, 1546, 1546, 1546, 1546, 1546, 1546, 1546, 1546, 1546, 1546, 1546, 1546, 1546, 1546, 1546, 1546, 1539, 1546, 1546, 1546, 1546, 1546, 1546, 1546, 1546, 1546, 1546, 1546, 1546, 1546, 1539, 1546, 1546, 1546, 1553, 1546, 1546, 1546, 1546, 1546, 1546, 1546, 1539, 1539, 1546, 1539, 1539, 1539, 1539, 1539, 1539, 1546, 1546, 1546, 1546, 1546, 1539, 1546, 1539, 1539, 1539, 1539, 1539, 1539, 1539, 1539, 1539, 1539, 1539, 1539, 1546, 1546, 1539, 1539, 1539, 1539, 1539, 1539, 1539, 1532, 1539, 1532, 1532, 1532, 1539, 1539, 1539, 1539, 1539, 1539
1641, 1641, 1641, 1641, 1641, 1641, 1641, 1634, 1634, 1634, 1634, 1634, 1634, 1634, 1634, 1641, 1641, 1641, 1641, 1641, 1641, 1641, 1641, 1641, 1641, 1641, 1634, 1634, 1634, 1634, 1634, 1634, 1634, 1634, 1634, 1634, 1641, 1641, 1634, 1641, 1641, 1641, 1641, 1641, 1641, 1641, 1641, 1634, 1634, 1634, 1634, 1634, 1634, 1634, 1634, 1634, 1634, 1634, 1634, 1634, 1634, 1634, 1634, 1634, 1634, 1626, 1626, 1626, 1626, 1626, 1626, 1634, 1634, 1634, 1634, 1634, 1634, 1634, 1634, 1634, 1634, 1626, 1626, 1626, 1634, 1626, 1634, 1626, 1626, 1626, 1626, 1626, 1626, 1626, 1626, 1626, 1626, 1626, 1626, 1626, 1626, 1626, 1626, 1618, 1618, 1618, 1618, 1618, 1618, 1618, 1618, 1618, 1618, 1618, 1618, 1611, 1611, 1618, 1618, 1618, 1611, 1611, 1618, 1618, 1618, 1603, 1603, 1603, 1603, 1603, 1611, 1603, 1603, 1603, 1603, 1603, 1603, 1603, 1603, 1603, 1603, 1603, 1596, 1603, 1603, 1603, 1603, 1603, 1603, 1603, 1603, 1596, 1596, 1596, 1596, 1596, 1596, 1596, 1596, 1596, 1596, 1596, 1596, 1596, 1596, 1596, 1596, 1596, 1596, 1596, 1589, 1589, 1589, 1589, 1589, 1589, 1589, 1589, 1589, 1589, 1589, 1589, 1589, 1589, 1589, 1589, 1589, 1589, 1589, 1589, 1589, 1589, 1589, 1589, 1589, 1596, 1596, 1596, 1589, 1589, 1589, 1589, 1589, 1589, 1589, 1589, 1589, 1589, 1589, 1589, 1589, 1589, 1589, 1581, 1581, 1581, 1581, 1581, 1581, 1581, 1581, 1581, 1581, 1581, 1574, 1574, 1574, 1574, 1574, 1574, 1574, 1574, 1574, 1574, 1574, 1574, 1574, 1574, 1581, 1581, 1574, 1574, 1574, 1574, 1574, 1574, 1574, 1574, 1574, 1574, 1574, 1574, 1574, 1574, 1574, 1574, 1574, 1567, 1574, 1574, 1567, 1574, 1574, 1574, 1574, 1574, 1574, 1574, 1574, 1574, 1574, 1574, 1574, 1567, 1567, 1567, 1567, 1567, 1567, 1567, 1567, 1567, 1567, 1567, 1567, 1567, 1560, 1560, 1560, 1560, 1560, 1560, 1560, 1560, 1560, 1560, 1560, 1560, 1560, 1553, 1553, 1553, 1553, 1553, 1553, 1560, 1560, 1560, 1560, 1560, 1560, 1560, 1560, 1560, 1560, 1560, 1560, 1560, 1560, 1560, 1560, 1560, 1553, 1553, 1553, 1553, 1553, 1553, 1560, 1553, 1553, 1553, 1553, 1553, 1553, 1553, 1546, 1546, 1546, 1546, 1546, 1546, 1546, 1546, 1546, 1553, 1553, 1553, 1560, 1546, 1553, 1553, 1553, 1553, 1553, 1553, 1553, 1553, 1553, 1553, 1553, 1553, 1553, 1553, 1553, 1553, 1553, 1553, 1553, 1553, 1553, 1553, 1546, 1553, 1546, 1546, 1546, 1553, 1553, 1553, 1553, 1553, 1553, 1553, 1546, 1546, 1546, 1546, 1546, 1546, 1546, 1553, 1560, 1560, 1560, 1560, 1553, 1553, 1553, 1553, 1546, 1546, 1546, 1553, 1546, 1546, 1553, 1546, 1553, 1553, 1546, 1546, 1546, 1546, 1546, 1546, 1546, 1546, 1546, 1546, 1546, 1546, 1546, 1546, 1546, 1539, 1539, 1539, 1539, 1546, 1546, 1546, 1546, 1546, 1546, 1546, 1546, 1539, 1539, 1539, 1539, 1539, 1539, 1539, 1539, 1546, 1539, 1539, 1539, 1539, 1546, 1539, 1539, 1539, 1539, 1539, 1539, 1539, 1539, 1539, 1532, 1539, 1539, 1539, 1539, 1539, 1539, 1539, 1539, 1539, 1539, 1539, 1539, 1539, 1539, 1532, 1532, 1539, 1532, 1539, 1539, 1539, 1539, 1539, 1539, 1539, 1539, 1539, 1539, 1539, 1532, 1532, 1532, 1532, 1532, 1539, 1532, 1532, 1532, 1532, 1532
1634, 1634, 1634, 1641, 1641, 1641, 1641, 1634, 1634, 1634, 1634, 1634, 1634, 1634, 1634, 1634, 1634, 1634, 1641, 1634, 1634, 1641, 1641, 1634, 1634, 1634, 1634, 1634, 1634, 1634, 1634, 1634, 1634, 1634, 1634, 1634, 1634, 1634, 1634, 1634, 1634, 1634, 1641, 1641, 1641, 1641, 1641, 1634, 1634, 1634, 1634, 1634, 1634, 1626, 1626, 1634, 1634, 1634, 1634, 1634, 1634, 1634, 1634, 1626, 1626, 1626, 1626, 1626, 1626, 1626, 1626, 1626, 1626, 1626, 1634, 1626, 1626, 1626, 1626, 1626, 1626, 1626, 1626, 1626, 1626, 1626, 1626, 1626, 1626, 1626, 1626, 1626, 1626, 1618, 1626, 1626, 1626, 1626, 1626, 1626, 1626, 1626, 1618, 1618, 1618, 1618, 1618, 1618, 1611, 1603, 1611, 1611, 1611, 1611, 1611, 1611, 1611, 1611, 1611, 1611, 1611, 1611, 1611, 1603, 1603, 1603, 1603, 1603, 1596, 1596, 1603, 1603, 1603, 1603, 1603, 1603, 1603, 1596, 1603, 1596, 1603, 1596, 1596, 1596, 1596, 1603, 1603, 1603, 1596, 1596, 1596, 1596, 1596, 1596, 1596, 1596, 1596, 1596, 1596, 1596, 1596, 1596, 1596, 1596, 1596, 1596, 1596, 1596, 1596, 1589, 1589, 1589, 1589, 1589, 1589, 1581, 1581, 1589, 1589, 1589, 1589, 1589, 1589, 1589, 1589, 1589, 1581, 1581, 1581, 1581, 1581, 1581, 1589, 1581, 1581, 1589, 1596, 1589, 1589, 1589, 1589, 1589, 1581, 1581, 1581, 1589, 1581, 1581, 1589, 1581, 1581, 1581, 1581, 1581, 1581, 1581, 1574, 1574, 1574, 1574, 1574, 1574, 1574, 1574, 1574, 1574, 1574, 1574, 1574, 1574, 1574, 1574, 1574, 1574, 1574, 1574, 1574, 1574, 1574, 1581, 1581, 1574, 1574, 1574, 1574, 1567, 1567, 1567, 1567, 1574, 1574, 1574, 1567, 1574, 1567, 1567, 1567, 1567, 1567, 1567, 1567, 1567, 1567, 1567, 1567, 1567, 1567, 1567, 1567, 1567, 1567, 1567, 1567, 1567, 1567, 1567, 1567, 1567, 1567, 1567, 1567, 1567, 1567, 1567, 1560, 1560, 1560, 1560, 1560, 1560, 1560, 1553, 1553, 1560, 1560, 1560, 1560, 1553, 1553, 1553, 1553, 1546, 1546, 1546, 1546, 1546, 1553, 1560, 1560, 1560, 1553, 1560, 1560, 1553, 1560, 1553, 1560, 1553, 1553, 1553, 1553, 1553, 1553, 1553, 1553, 1553, 1553, 1553, 1553, 1553, 1553, 1553, 1553, 1553, 1553, 1553, 1546, 1546, 1546, 1546, 1546, 1546, 1546, 1546, 1546, 1546, 1546, 1546, 1553, 1546, 1553, 1553, 1553, 1553, 1553, 1553, 1546, 1553, 1546, 1546, 1546, 1546, 1546, 1546, 1553, 1546, 1546, 1553, 1553, 1553, 1553, 1546, 1546, 1546, 1546, 1546, 1546, 1546, 1546, 1546, 1546, 1546, 1546, 1546, 1546, 1546, 1546, 1546, 1546, 1546, 1539, 1553, 1553, 1560, 1553, 1553, 1553, 1553, 1546, 1546, 1546, 1546, 1546, 1546, 1546, 1546, 1546, 1546, 1546, 1546, 1546, 1546, 1546, 1546, 1546, 1546, 1546, 1546, 1546, 1546, 1546, 1546, 1546, 1546, 1539, 1539, 1539, 1539, 1539, 1539, 1546, 1546, 1546, 1546, 1546, 1546, 1546, 1539, 1546, 1539, 1539, 1539, 1539, 1539, 1532, 1539, 1539, 1539, 1532, 1539, 1539, 1539, 1539, 1539, 1532, 1539, 1539, 1539, 1532, 1532, 1532, 1532, 1539, 1539, 1539, 1539, 1539, 1539, 1539, 1539, 1539, 1532, 1532, 1525, 1525, 1525, 1525, 1532, 1532, 1539, 1532, 1539, 1539, 1539, 1539, 1539, 1539, 1539, 1539, 1532, 1532, 1532, 1532, 1532, 1532, 1532, 1532, 1532, 1532, 1532, 1525
1634, 1634, 1634, 1634, 1641, 1641, 1641, 1626, 1634, 1634, 1634, 1634, 1634, 1626, 1634, 1634, 1634, 1634, 1634, 1634, 1634, 1634, 1634, 1634, 1634, 1634, 1634, 1634, 1634, 1626, 1626, 1626, 1626, 1626, 1626, 1626, 1634, 1634, 1634, 1634, 1634, 1634, 1634, 1634, 1634, 1634, 1634, 1634, 1634, 1634, 1634, 1626, 1626, 1626, 1626, 1634, 1634, 1634, 1634, 1634, 1634, 1634, 1634, 1626, 1626, 1626, 1626, 1626, 1626, 1626, 1626, 1626, 1626, 1626, 1626, 1626, 1626, 1626, 1626, 1626, 1626, 1626, 1626, 1626, 1626, 1626, 1626, 1626, 1618, 1618, 1618, 1618, 1618, 1618, 1618, 1618, 1618, 1618, 1618, 1618, 1618, 1618, 1611, 1611, 1611, 1611, 1603, 1603, 1603, 1603, 1603, 1603, 1603, 1611, 1603, 1603, 1603, 1611, 1611, 1611, 1611, 1603, 1611, 1603, 1603, 1596, 1596, 1596, 1596, 1596, 1596, 1596, 1596, 1603, 1596, 1596, 1603, 1596, 1596, 1596, 1596, 1596, 1596, 1596, 1596, 1596, 1596, 1596, 1596, 1596, 1596, 1596, 1596, 1596, 1596, 1596, 1596, 1596, 1596, 1596, 1589, 1589, 1589, 1589, 1589, 1589, 1589, 1589, 1589, 1589, 1589, 1589, 1581, 1581, 1581, 1581, 1581, 1581, 1581, 1581, 1581, 1581, 1581, 1581, 1581, 1581, 1581, 1581, 1581, 1581, 1581, 1581, 1581, 1581, 1581, 1581, 1581, 1581, 1581, 1589, 1589, 1589, 1581, 1581, 1581, 1581, 1581, 1581, 1581, 1581, 1581, 1574, 1574, 1574, 1574, 1574, 1574, 1574, 1574, 1574, 1574, 1574, 1574, 1574, 1574, 1574, 1574, 1574, 1574, 1574, 1574, 1574, 1574, 1574, 1574, 1574, 1574, 1574, 1574, 1581, 1574, 1574, 1574, 1567, 1567, 1567, 1567, 1567, 1567, 1567, 1567, 1567, 1567, 1567, 1567, 1567, 1567, 1567, 1567, 1567, 1567, 1567, 1567, 1567, 1567, 1567, 1567, 1567, 1567, 1567, 1567, 1567, 1567, 1567, 1567, 1567, 1567, 1567, 1567, 1567, 1560, 1560, 1560, 1560, 1560, 1560, 1553, 1553, 1553, 1553, 1553, 1553, 1553, 1553, 1553, 1553, 1553, 1553, 1553, 1546, 1546, 1546, 1546, 1546, 1546, 1546, 1546, 1553, 1553, 1560, 1553, 1553, 1553, 1553, 1553, 1553, 1553, 1553, 1553, 1546, 1546, 1553, 1546, 1546, 1546, 1546, 1546, 1546, 1546, 1546, 1546, 1553, 1546, 1553, 1546, 1546, 1546, 1546, 1546, 1546, 1546, 1546, 1546, 1546, 1546, 1546, 1546, 1546, 1546, 1546, 1546, 1546, 1546, 1546, 1546, 1546, 1546, 1546, 1546, 1546, 1546, 1546, 1546, 1546, 1553, 1546, 1546, 1553, 1553, 1553, 1553, 1553, 1546, 1546, 1546, 1546, 1546, 1546, 1546, 1546, 1546, 1546, 1546, 1546, 1546, 1546, 1546, 1546, 1546, 1539, 1539, 1546, 1553, 1553, 1553, 1546, 1546, 1546, 1546, 1546, 1546, 1546, 1546, 1546, 1546, 1546, 1546, 1546, 1546, 1546, 1546, 1546, 1546, 1546, 1546, 1546, 1546, 1546, 1546, 1546, 1546, 1539, 1539, 1539, 1539, 1539, 1539, 1539, 1539, 1539, 1546, 1539, 1539, 1539, 1546, 1539, 1539, 1539, 1539, 1539, 1539, 1539, 1539, 1539, 1532, 1532, 1532, 1532, 1532, 1532, 1539, 1539, 1539, 1539, 1532, 1539, 1532, 1532, 1525, 1532, 1525, 1525, 1532, 1532, 1532, 1532, 1532, 1532, 1532, 1532, 1532, 1525, 1525, 1525, 1525, 1525, 1525, 1525, 1532, 1532, 1532, 1532, 1532, 1532, 1539, 1539, 1539, 1539, 1532, 1532, 1532, 1532, 1532, 1532, 1525, 1525, 1519, 1519, 1519, 1525, 1525
1634, 1634, 1634, 1634, 1626, 1634, 1626, 1626, 1626, 1626, 1634, 1626, 1626, 1626, 1626, 1634, 1626, 1626, 1634, 1626, 1634, 1634, 1634, 1634, 1634, 1634, 1634, 1634, 1626, 1626, 1626, 1626, 1626, 1626, 1626, 1626, 1626, 1626, 1634, 1634, 1634, 1634, 1634, 1634, 1634, 1634, 1634, 1634, 1634, 1634, 1634, 1626, 1626, 1626, 1626, 1634, 1626, 1634, 1626, 1634, 1626, 1626, 1626, 1626, 1626, 1626, 1626, 1626, 1626, 1626, 1626, 1626, 1626, 1626, 1626, 1626, 1626, 1618, 1626, 1626, 1626, 1626, 1626, 1626, 1626, 1626, 1626, 1618, 1618, 1618, 1618, 1618, 1611, 1618, 1611, 1611, 1611, 1611, 1611, 1611, 1611, 1611, 1611, 1603, 1603, 1603, 1603, 1603, 1603, 1603, 1603, 1603, 1603, 1603, 1603, 1603, 1603, 1603, 1603, 1603, 1603, 1603, 1603, 1603, 1596, 1596, 1596, 1596, 1596, 1596, 1596, 1596, 1596, 1596, 1596, 1596, 1596, 1596, 1596, 1596, 1596, 1596, 1596, 1596, 1589, 1589, 1589, 1589, 1589, 1589, 1589, 1589, 1589, 1589, 1589, 1589, 1589, 1589, 1589, 1589, 1589, 1589, 1581, 1589, 1589, 1589, 1581, 1581, 1581, 1581, 1581, 1581, 1581, 1581, 1581, 1574, 1574, 1574, 1581, 1581, 1574, 1574, 1581, 1581, 1581, 1581, 1581, 1574, 1574, 1574, 1574, 1574, 1574, 1574, 1574, 1574, 1574, 1574, 1574, 1581, 1581, 1589, 1581, 1581, 1574, 1581, 1574, 1574, 1574, 1574, 1574, 1574, 1574, 1574, 1574, 1574, 1567, 1574, 1567, 1567, 1567, 1567, 1567, 1567, 1567, 1567, 1567, 1567, 1567, 1567, 1567, 1567, 1567, 1567, 1574, 1567, 1567, 1574, 1574, 1574, 1574, 1567, 1567, 1560, 1560, 1560, 1560, 1560, 1560, 1567, 1567, 1567, 1567, 1567, 1567, 1567, 1567, 1567, 1567, 1567, 1567, 1567, 1567, 1567, 1567, 1567, 1567, 1567, 1567, 1567, 1567, 1567, 1567, 1567, 1560, 1560, 1560, 1560, 1560, 1560, 1560, 1560, 1560, 1560, 1553, 1553, 1553, 1553, 1546, 1553, 1553, 1546, 1546, 1553, 1553, 1553, 1553, 1546, 1546, 1546, 1546, 1546, 1546, 1546, 1546, 1546, 1546, 1553, 1553, 1553, 1553, 1553, 1553, 1546, 1546, 1546, 1546, 1546, 1546, 1546, 1546, 1546, 1546, 1546, 1546, 1546, 1546, 1546, 1546, 1546, 1546, 1546, 1546, 1546, 1546, 1546, 1539, 1546, 1546, 1539, 1546, 1546, 1546, 1546, 1546, 1546, 1546, 1546, 1546, 1546, 1546, 1546, 1546, 1546, 1546, 1546, 1546, 1546, 1546, 1546, 1546, 1546, 1546, 1546, 1546, 1546, 1546, 1546, 1546, 1546, 1546, 1546, 1546, 1546, 1546, 1546, 1546, 1546, 1546, 1546, 1546, 1546, 1546, 1546, 1539, 1539, 1539, 1539, 1546, 1539, 1539, 1539, 1539, 1546, 1546, 1546, 1546, 1546, 1546, 1546, 1546, 1546, 1546, 1546, 1546, 1546, 1546, 1546, 1546, 1546, 1546, 1546, 1546, 1546, 1546, 1539, 1546, 1546, 1546, 1539, 1539, 1539, 1539, 1539, 1539, 1532, 1532, 1532, 1539, 1539, 1539, 1539, 1539, 1539, 1539, 1539, 1539, 1539, 1539, 1539, 1539, 1539, 1539, 1532, 1532, 1532, 1532, 1525, 1532, 1532, 1539, 1532, 1532, 1532, 1532, 1532, 1525, 1525, 1525, 1525, 1525, 1525, 1525, 1525, 1532, 1532, 1532, 1532, 1532, 1532, 1525, 1525, 1525, 1525, 1525, 1525, 1525, 1525, 1532, 1532, 1532, 1532, 1532, 1532, 1539, 1539, 1539, 1532, 1532, 1532, 1525, 1525, 1525, 1525, 1525, 1519, 1519, 1519, 1519, 1519, 1519
1634, 1626, 1626, 1626, 1626, 1626, 1626, 1626, 1626, 1626, 1626, 1626, 1626, 1626, 1626, 1626, 1626, 1626, 1626, 1626, 1626, 1626, 1626, 1626, 1626, 1626, 1626, 1626, 1626, 1626, 1626, 1626, 1626, 1626, 1626, 1626, 1626, 1626, 1626, 1626, 1634, 1634, 1634, 1634, 1626, 1634, 1634, 1626, 1634, 1626, 1626, 1626, 1626, 1634, 1626, 1626, 1626, 1626, 1626, 1626, 1626, 1626, 1626, 1626, 1626, 1626, 1626, 1626, 1626, 1626, 1618, 1618, 1618, 1618, 1618, 1618, 1618, 1618, 1618, 1618, 1618, 1618, 1618, 1618, 1618, 1618, 1618, 1618, 1618, 1611, 1611, 1611, 1611, 1611, 1603, 1611, 1603, 1603, 1611, 1603, 1603, 1603, 1603, 1603, 1603, 1603, 1603, 1603, 1603, 1596, 1603, 1596, 1596, 1596, 1596, 1596, 1596, 1603, 1603, 1603, 1596, 1596, 1596, 1596, 1596, 1596, 1596, 1596, 1596, 1596, 1589, 1596, 1589, 1596, 1589, 1596, 1596, 1589, 1596, 1596, 1596, 1589, 1589, 1596, 1589, 1589, 1589, 1589, 1589, 1589, 1589, 1581, 1589, 1589, 1589, 1589, 1589, 1589, 1589, 1589, 1581, 1581, 1581, 1581, 1581, 1581, 1581, 1581, 1581, 1581, 1574, 1574, 1574, 1574, 1574, 1574, 1574, 1574, 1574, 1574, 1574, 1574, 1574, 1574, 1581, 1581, 1581, 1574, 1567, 1574, 1574, 1574, 1574, 1574, 1574, 1574, 1574, 1574, 1574, 1574, 1574, 1581, 1574, 1574, 1574, 1574, 1574, 1574, 1574, 1574, 1574, 1574, 1574, 1574, 1574, 1574, 1567, 1567, 1567, 1567, 1567, 1567, 1567, 1567, 1567, 1567, 1567, 1567, 1567, 1567, 1567, 1567, 1567, 1567, 1567, 1567, 1567, 1567, 1567, 1567, 1567, 1567, 1567, 1560, 1560, 1560, 1560, 1560, 1560, 1560, 1560, 1560, 1560, 1560, 1567, 1567, 1567, 1567, 1567, 1567, 1560, 1567, 1560, 1560, 1567, 1560, 1560, 1567, 1560, 1560, 1567, 1560, 1560, 1560, 1560, 1560, 1553, 1553, 1553, 1553, 1553, 1553, 1553, 1553, 1553, 1546, 1546, 1546, 1546, 1546, 1546, 1546, 1546, 1553, 1553, 1546, 1546, 1546, 1546, 1546, 1546, 1539, 1539, 1546, 1546, 1546, 1546, 1546, 1546, 1546, 1546, 1546, 1546, 1546, 1546, 1546, 1546, 1539, 1546, 1546, 1546, 1546, 1546, 1546, 1546, 1546, 1546, 1546, 1546, 1546, 1546, 1546, 1546, 1546, 1539, 1539, 1539, 1539, 1539, 1539, 1539, 1546, 1546, 1539, 1546, 1546, 1539, 1546, 1539, 1539, 1539, 1539, 1539, 1539, 1539, 1539, 1546, 1546, 1546, 1546, 1546, 1546, 1546, 1546, 1546, 1546, 1539, 1539, 1546, 1539, 1539, 1539, 1539, 1546, 1546, 1546, 1546, 1546, 1546, 1546, 1546, 1546, 1546, 1539, 1539, 1539, 1539, 1539, 1539, 1539, 1539, 1539, 1539, 1546, 1539, 1539, 1546, 1546, 1546, 1546, 1546, 1546, 1546, 1546, 1546, 1546, 1546, 1546, 1546, 1539, 1539, 1539, 1546, 1546, 1539, 1539, 1539, 1539, 1539, 1539, 1539, 1539, 1539, 1539, 1539, 1532, 1532, 1532, 1532, 1532, 1539, 1539, 1539, 1539, 1539, 1539, 1532, 1532, 1532, 1532, 1532, 1532, 1532, 1532, 1532, 1532, 1532, 1532, 1532, 1532, 1539, 1532, 1532, 1532, 1532, 1525, 1525, 1525, 1519, 1519, 1519, 1525, 1519, 1525, 1525, 1525, 1525, 1525, 1525, 1525, 1525, 1525, 1519, 1519, 1519, 1525, 1519, 1519, 1525, 1525, 1532, 1532, 1532, 1532, 1532, 1532, 1539, 1532, 1532, 1525, 1525, 1525, 1525, 1519, 1519, 1519, 1519, 1519, 1519, 1519, 1519
1626, 1626, 1626, 1618, 1626, 1626, 1626, 1626, 1626, 1626, 1626, 1626, 1626, 1626, 1626, 1626, 1626, 1626, 1626, 1626, 1626, 1626, 1626, 1626, 1626, 1626, 1626, 1626, 1626, 1626, 1618, 1626, 1618, 1618, 1626, 1618, 1626, 1626, 1626, 1626, 1626, 1626, 1626, 1626, 1626, 1626, 1626, 1626, 1634, 1626, 1626, 1626, 1626, 1626, 1626, 1626, 1626, 1626, 1626, 1626, 1626, 1626, 1626, 1626, 1626, 1618, 1618, 1618, 1618, 1618, 1618, 1618, 1618, 1618, 1618, 1618, 1618, 1618, 1611, 1611, 1611, 1611, 1611, 1611, 1611, 1611, 1611, 1611, 1611, 1611, 1603, 1603, 1603, 1603, 1603, 1603, 1603, 1603, 1603, 1603, 1603, 1596, 1603, 1603, 1603, 1603, 1603, 1603, 1596, 1596, 1596, 1596, 1596, 1596, 1596, 1596, 1596, 1596, 1596, 1596, 1596, 1596, 1596, 1596, 1596, 1596, 1596, 1596, 1596, 1596, 1589, 1589, 1589, 1589, 1589, 1589, 1589, 1589, 1596, 1596, 1596, 1589, 1589, 1589, 1589, 1589, 1589, 1589, 1589, 1589, 1589, 1581, 1589, 1581, 1589, 1589, 1589, 1589, 1581, 1581, 1581, 1581, 1574, 1574, 1574, 1574, 1581, 1574, 1574, 1574, 1574, 1574, 1574, 1574, 1574, 1574, 1574, 1574, 1574, 1574, 1574, 1574, 1574, 1574, 1574, 1581, 1574, 1567, 1567, 1567, 1574, 1567, 1574, 1567, 1567, 1574, 1574, 1574, 1574, 1574, 1574, 1574, 1567, 1567, 1567, 1567, 1574, 1574, 1567, 1567, 1567, 1567, 1567, 1567, 1567, 1567, 1567, 1567, 1567, 1567, 1567, 1567, 1567, 1567, 1567, 1567, 1560, 1560, 1567, 1567, 1567, 1567, 1567, 1567, 1567, 1567, 1567, 1567, 1567, 1567, 1567, 1560, 1553, 1553, 1560, 1553, 1560, 1560, 1560, 1560, 1560, 1560, 1560, 1560, 1560, 1560, 1560, 1560, 1560, 1560, 1560, 1560, 1560, 1560, 1560, 1560, 1560, 1560, 1560, 1560, 1560, 1560, 1560, 1553, 1553, 1553, 1553, 1553, 1553, 1546, 1546, 1546, 1546, 1546, 1546, 1546, 1546, 1546, 1546, 1546, 1546, 1546, 1546, 1546, 1546, 1546, 1546, 1546, 1546, 1539, 1539, 1539, 1539, 1539, 1539, 1539, 1539, 1546, 1546, 1546, 1546, 1539, 1546, 1539, 1546, 1539, 1539, 1539, 1539, 1539, 1539, 1546, 1539, 1539, 1546, 1546, 1539, 1539, 1546, 1539, 1546, 1546, 1539, 1546, 1546, 1546, 1539, 1539, 1539, 1539, 1539, 1539, 1539, 1539, 1539, 1539, 1539, 1539, 1539, 1539, 1539, 1539, 1539, 1539, 1539, 1539, 1539, 1539, 1539, 1539, 1539, 1539, 1539, 1539, 1539, 1539, 1539, 1539, 1539, 1539, 1539, 1539, 1539, 1539, 1546, 1546, 1546, 1539, 1546, 1546, 1546, 1546, 1539, 1539, 1539, 1539, 1539, 1539, 1539, 1539, 1539, 1539, 1539, 1539, 1539, 1539, 1539, 1539, 1539, 1539, 1539, 1539, 1539, 1539, 1539, 1539, 1539, 1539, 1539, 1539, 1539, 1539, 1539, 1539, 1539, 1539, 1539, 1539, 1539, 1539, 1539, 1539, 1539, 1532, 1532, 1532, 1532, 1532, 1532, 1532, 1532, 1532, 1532, 1532, 1532, 1532, 1532, 1532, 1525, 1532, 1532, 1532, 1525, 1525, 1525, 1532, 1532, 1525, 1525, 1532, 1532, 1532, 1532, 1525, 1525, 1525, 1525, 1519, 1519, 1519, 1519, 1519, 1519, 1519, 1525, 1525, 1525, 1525, 1525, 1525, 1525, 1519, 1519, 1519, 1519, 1519, 1519, 1519, 1519, 1519, 1525, 1525, 1525, 1532, 1532, 1532, 1532, 1532, 1532, 1519, 1525, 1519, 1519, 1519, 1519, 1519, 1512, 1512, 1512, 1512, 1519
1626, 1618, 1618, 1618, 1618, 1618, 1618, 1618, 1618, 1618, 1618, 1618, 1618, 1618, 1626, 1626, 1626, 1626, 1618, 1618, 1626, 1626, 1626, 1626, 1626, 1626, 1626, 1626, 1626, 1626, 1618, 1618, 1618, 1618, 1618, 1618, 1618, 1618, 1626, 1618, 1626, 1626, 1626, 1626, 1626, 1618, 1618, 1618, 1626, 1626, 1618, 1618, 1626, 1626, 1626, 1626, 1626, 1618, 1618, 1618, 1618, 1618, 1626, 1618, 1618, 1618, 1618, 1618, 1618, 1618, 1611, 1618, 1611, 1611, 1611, 1611, 1611, 1611, 1611, 1611, 1611, 1603, 1611, 1611, 1611, 1611, 1611, 1611, 1611, 1611, 1603, 1603, 1603, 1603, 1603, 1603, 1603, 1603, 1603, 1603, 1603, 1596, 1603, 1596, 1596, 1596, 1596, 1596, 1596, 1596, 1596, 1596, 1596, 1596, 1596, 1596, 1596, 1596, 1596, 1589, 1589, 1589, 1596, 1596, 1596, 1596, 1589, 1589, 1589, 1589, 1589, 1589, 1581, 1581, 1581, 1589, 1589, 1581, 1589, 1589, 1589, 1589, 1581, 1581, 1581, 1589, 1581, 1581, 1581, 1581, 1581, 1581, 1581, 1581, 1581, 1581, 1581, 1581, 1581, 1581, 1574, 1574, 1574, 1574, 1574, 1574, 1574, 1574, 1574, 1574, 1574, 1574, 1574, 1574, 1567, 1567, 1567, 1567, 1567, 1567, 1567, 1567, 1567, 1574, 1574, 1574, 1574, 1567, 1567, 1574, 1574, 1567, 1567, 1567, 1567, 1567, 1567, 1567, 1567, 1574, 1567, 1574, 1567, 1567, 1567, 1567, 1567, 1567, 1567, 1567, 1567, 1567, 1567, 1567, 1567, 1560, 1560, 1560, 1560, 1560, 1560, 1560, 1560, 1560, 1560, 1560, 1560, 1560, 1560, 1560, 1567, 1560, 1560, 1560, 1560, 1567, 1567, 1560, 1560, 1560, 1560, 1553, 1553, 1553, 1553, 1553, 1553, 1553, 1553, 1553, 1553, 1553, 1553, 1553, 1553, 1560, 1560, 1560, 1560, 1560, 1553, 1560, 1553, 1553, 1560, 1553, 1553, 1553, 1553, 1553, 1553, 1553, 1553, 1553, 1553, 1553, 1546, 1546, 1546, 1546, 1546, 1546, 1546, 1546, 1546, 1546, 1546, 1546, 1546, 1546, 1546, 1546, 1546, 1546, 1546, 1546, 1539, 1539, 1539, 1539, 1539, 1539, 1539, 1539, 1539, 1539, 1539, 1539, 1539, 1539, 1539, 1539, 1539, 1539, 1539, 1539, 1539, 1539, 1539, 1539, 1539, 1539, 1539, 1539, 1539, 1539, 1539, 1539, 1539, 1539, 1539, 1539, 1539, 1539, 1539, 1539, 1539, 1539, 1532, 1532, 1532, 1539, 1539, 1539, 1539, 1539, 1539, 1539, 1539, 1539, 1539, 1539, 1539, 1539, 1539, 1539, 1539, 1539, 1539, 1539, 1539, 1539, 1539, 1539, 1539, 1539, 1532, 1532, 1532, 1532, 1532, 1532, 1539, 1539, 1539, 1539, 1539, 1539, 1539, 1539, 1539, 1539, 1539, 1539, 1539, 1539, 1539, 1539, 1539, 1539, 1539, 1539, 1532, 1539, 1532, 1532, 1539, 1539, 1539, 1532, 1539, 1539, 1539, 1539, 1532, 1539, 1539, 1539, 1539, 1539, 1532, 1539, 1539, 1539, 1539, 1532, 1532, 1532, 1532, 1532, 1532, 1532, 1532, 1532, 1525, 1525, 1525, 1525, 1525, 1532, 1532, 1532, 1532, 1532, 1532, 1525, 1525, 1525, 1525, 1525, 1525, 1525, 1519, 1525, 1519, 1525, 1525, 1525, 1525, 1525, 1532, 1532, 1532, 1525, 1525, 1525, 1519, 1519, 1519, 1519, 1519, 1519, 1519, 1519, 1519, 1519, 1519, 1519, 1525, 1519, 1519, 1519, 1519, 1519, 1519, 1519, 1519, 1519, 1519, 1519, 1519, 1525, 1525, 1525, 1525, 1532, 1532, 1519, 1519, 1519, 1519, 1519, 1519, 1519, 1512, 1512, 1512, 1512, 1512, 1512, 1512
1618, 1611, 1611, 1611, 1611, 1611, 1611, 1618, 1611, 1611, 1611, 1618, 1618, 1618, 1618, 1618, 1618, 1618, 1618, 1618, 1618, 1618, 1626, 1626, 1626, 1626, 1626, 1626, 1626, 1626, 1618, 1618, 1618, 1618, 1618, 1618, 1618, 1618, 1618, 1618, 1618, 1626, 1626, 1626, 1618, 1618, 1618, 1618, 1618, 1611, 1611, 1611, 1618, 1618, 1618, 1626, 1626, 1618, 1618, 1618, 1618, 1618, 1618, 1618, 1618, 1618, 1618, 1611, 1611, 1611, 1611, 1611, 1611, 1611, 1603, 1611, 1603, 1611, 1611, 1603, 1603, 1603, 1603, 1603, 1603, 1603, 1603, 1603, 1603, 1603, 1603, 1603, 1603, 1603, 1603, 1603, 1603, 1603, 1603, 1603, 1603, 1596, 1596, 1596, 1596, 1596, 1596, 1596, 1596, 1596, 1596, 1596, 1596, 1596, 1596, 1596, 1589, 1589, 1589, 1589, 1589, 1589, 1589, 1596, 1589, 1589, 1589, 1589, 1589, 1589, 1581, 1581, 1581, 1581, 1581, 1581, 1581, 1581, 1589, 1589, 1589, 1581, 1581, 1581, 1581, 1581, 1581, 1581, 1581, 1581, 1581, 1574, 1574, 1574, 1581, 1581, 1581, 1581, 1574, 1574, 1574, 1574, 1574, 1574, 1574, 1574, 1574, 1567, 1567, 1567, 1567, 1567, 1567, 1567, 1567, 1567, 1567, 1567, 1567, 1567, 1567, 1567, 1567, 1574, 1574, 1574, 1574, 1567, 1567, 1574, 1574, 1567, 1567, 1567, 1567, 1567, 1567, 1567, 1560, 1567, 1567, 1567, 1560, 1567, 1560, 1560, 1567, 1567, 1567, 1567, 1567, 1567, 1567, 1567, 1567, 1567, 1560, 1560, 1560, 1553, 1560, 1560, 1560, 1560, 1560, 1560, 1560, 1560, 1560, 1560, 1560, 1560, 1560, 1560, 1560, 1560, 1560, 1560, 1560, 1553, 1553, 1553, 1553, 1553, 1553, 1553, 1553, 1553, 1553, 1553, 1553, 1553, 1553, 1553, 1553, 1553, 1553, 1553, 1560, 1560, 1553, 1553, 1553, 1553, 1553, 1553, 1553, 1553, 1553, 1553, 1553, 1546, 1553, 1546, 1546, 1546, 1546, 1546, 1546, 1546, 1546, 1546, 1546, 1546, 1539, 1539, 1539, 1539, 1539, 1539, 1546, 1546, 1546, 1546, 1539, 1539, 1539, 1539, 1539, 1539, 1539, 1539, 1539, 1539, 1539, 1539, 1539, 1539, 1539, 1539, 1539, 1539, 1539, 1539, 1539, 1539, 1539, 1539, 1539, 1539, 1539, 1539, 1539, 1539, 1539, 1539, 1539, 1532, 1539, 1539, 1539, 1539, 1539, 1539, 1539, 1539, 1539, 1532, 1532, 1532, 1532, 1532, 1532, 1532, 1532, 1539, 1539, 1539, 1539, 1539, 1539, 1539, 1532, 1532, 1532, 1532, 1532, 1539, 1532, 1532, 1539, 1532, 1539, 1539, 1539, 1539, 1532, 1532, 1532, 1532, 1532, 1532, 1532, 1532, 1532, 1539, 1539, 1539, 1539, 1539, 1539, 1539, 1539, 1539, 1539, 1539, 1539, 1539, 1539, 1532, 1532, 1532, 1532, 1532, 1532, 1532, 1532, 1532, 1532, 1532, 1532, 1532, 1539, 1539, 1532, 1532, 1532, 1539, 1532, 1532, 1539, 1539, 1539, 1539, 1532, 1532, 1532, 1532, 1532, 1532, 1532, 1532, 1532, 1525, 1525, 1525, 1525, 1525, 1525, 1525, 1525, 1525, 1525, 1525, 1525, 1525, 1525, 1525, 1519, 1519, 1519, 1519, 1519, 1519, 1519, 1525, 1525, 1519, 1525, 1525, 1525, 1525, 1525, 1525, 1525, 1525, 1519, 1519, 1519, 1519, 1519, 1519, 1519, 1519, 1519, 1519, 1519, 1519, 1525, 1519, 1519, 1519, 1519, 1519, 1519, 1519, 1519, 1519, 1519, 1519, 1519, 1519, 1519, 1519, 1525, 1525, 1519, 1519, 1519, 1512, 1519, 1519, 1512, 1512, 1512, 1512, 1512, 1512, 1512, 1512, 1512
1611, 1611, 1611, 1611, 1611, 1611, 1611, 1611, 1611, 1611, 1611, 1611, 1611, 1611, 1611, 1618, 1618, 1611, 1618, 1618, 1618, 1618, 1618, 1626, 1626, 1626, 1626, 1626, 1618, 1618, 1618, 1618, 1611, 1618, 1618, 1618, 1618, 1618, 1618, 1611, 1618, 1618, 1618, 1618, 1611, 1611, 1611, 1611, 1611, 1611, 1611, 1603, 1611, 1611, 1618, 1618, 1618, 1618, 1618, 1618, 1618, 1611, 1618, 1618, 1618, 1618, 1618, 1611, 1611, 1611, 1603, 1611, 1603, 1603, 1603, 1603, 1603, 1603, 1603, 1603, 1603, 1603, 1603, 1603, 1603, 1603, 1603, 1603, 1603, 1603, 1603, 1603, 1596, 1603, 1603, 1603, 1596, 1596, 1596, 1596, 1596, 1596, 1596, 1596, 1596, 1596, 1596, 1596, 1596, 1596, 1596, 1596, 1596, 1596, 1589, 1589, 1589, 1589, 1589, 1581, 1581, 1581, 1589, 1589, 1589, 1589, 1589, 1589, 1581, 1581, 1581, 1581, 1574, 1574, 1574, 1581, 1581, 1574, 1581, 1581, 1581, 1581, 1581, 1574, 1581, 1581, 1581, 1581, 1581, 1574, 1574, 1574, 1574, 1574, 1574, 1574, 1574, 1574, 1574, 1574, 1574, 1574, 1574, 1567, 1567, 1567, 1567, 1567, 1567, 1567, 1567, 1567, 1560, 1560, 1560, 1560, 1567, 1567, 1567, 1567, 1567, 1567, 1567, 1567, 1567, 1567, 1567, 1560, 1567, 1567, 1567, 1567, 1567, 1567, 1567, 1567, 1567, 1560, 1567, 1567, 1567, 1567, 1560, 1567, 1560, 1560, 1560, 1560, 1560, 1567, 1567, 1567, 1567, 1567, 1553, 1553, 1553, 1553, 1553, 1553, 1553, 1553, 1553, 1553, 1553, 1560, 1553, 1553, 1553, 1553, 1560, 1560, 1553, 1560, 1553, 1560, 1560, 1560, 1553, 1553, 1553, 1553, 1553, 1546, 1546, 1546, 1553, 1553, 1546, 1553, 1553, 1553, 1553, 1553, 1553, 1553, 1546, 1546, 1546, 1553, 1546, 1546, 1546, 1546, 1546, 1546, 1546, 1546, 1546, 1546, 1546, 1546, 1546, 1546, 1546, 1546, 1546, 1546, 1546, 1546, 1539, 1539, 1539, 1539, 1539, 1539, 1539, 1539, 1539, 1539, 1539, 1539, 1539, 1539, 1539, 1539, 1539, 1539, 1532, 1532, 1532, 1532, 1532, 1532, 1539, 1539, 1539, 1539, 1539, 1539, 1539, 1539, 1532, 1532, 1532, 1532, 1532, 1532, 1532, 1539, 1532, 1532, 1532, 1532, 1532, 1532, 1532, 1532, 1532, 1532, 1539, 1539, 1539, 1539, 1539, 1532, 1532, 1532, 1532, 1525, 1525, 1525, 1532, 1532, 1532, 1539, 1539, 1539, 1532, 1532, 1532, 1532, 1532, 1532, 1532, 1525, 1532, 1532, 1532, 1532, 1532, 1532, 1532, 1532, 1532, 1532, 1532, 1532, 1525, 1525, 1525, 1525, 1532, 1532, 1525, 1532, 1532, 1532, 1532, 1532, 1532, 1539, 1539, 1539, 1539, 1532, 1539, 1532, 1532, 1532, 1532, 1532, 1525, 1532, 1532, 1532, 1532, 1532, 1532, 1532, 1532, 1532, 1532, 1532, 1532, 1532, 1532, 1532, 1532, 1532, 1525, 1525, 1532, 1532, 1525, 1525, 1525, 1525, 1525, 1525, 1525, 1525, 1532, 1525, 1525, 1519, 1519, 1519, 1519, 1519, 1519, 1519, 1519, 1519, 1525, 1519, 1525, 1519, 1519, 1519, 1519, 1519, 1519, 1519, 1519, 1519, 1519, 1519, 1525, 1525, 1525, 1519, 1519, 1519, 1519, 1519, 1519, 1519, 1519, 1519, 1519, 1519, 1519, 1519, 1519, 1519, 1519, 1512, 1519, 1519, 1519, 1519, 1519, 1519, 1519, 1519, 1519, 1519, 1519, 1519, 1519, 1519, 1519, 1519, 1512, 1519, 1512, 1512, 1512, 1512, 1519, 1519, 1512, 1512, 1512, 1512, 1512, 1512, 1512, 1506, 1512
1611, 1611, 1611, 1611, 1611, 1611, 1611, 1603, 1603, 1603, 1603, 1603, 1611, 1611, 1611, 1611, 1611, 1611, 1611, 1611, 1611, 1618, 1618, 1618, 1618, 1618, 1618, 1618, 1618, 1618, 1611, 1618, 1611, 1611, 1611, 1611, 1611, 1611, 1611, 1603, 1611, 1611, 1611, 1618, 1611, 1611, 1611, 1611, 1611, 1603, 1603, 1603, 1611, 1611, 1611, 1618, 1611, 1611, 1611, 1611, 1603, 1603, 1611, 1611, 1611, 1611, 1611, 1611, 1611, 1603, 1603, 1603, 1603, 1603, 1603, 1596, 1596, 1603, 1603, 1603, 1603, 1603, 1603, 1603, 1603, 1603, 1603, 1603, 1603, 1603, 1603, 1596, 1596, 1596, 1596, 1596, 1596, 1596, 1596, 1596, 1596, 1596, 1596, 1596, 1596, 1596, 1596, 1596, 1596, 1596, 1596, 1596, 1596, 1589, 1589, 1589, 1589, 1581, 1589, 1581, 1581, 1581, 1581, 1581, 1589, 1589, 1581, 1581, 1581, 1581, 1574, 1574, 1574, 1574, 1574, 1574, 1574, 1574, 1574, 1574, 1581, 1581, 1574, 1574, 1574, 1581, 1581, 1574, 1574, 1574, 1574, 1574, 1574, 1574, 1574, 1574, 1574, 1574, 1574, 1574, 1574, 1574, 1574, 1574, 1574, 1567, 1567, 1560, 1560, 1560, 1567, 1567, 1560, 1560, 1560, 1560, 1560, 1560, 1560, 1560, 1567, 1567, 1567, 1567, 1567, 1567, 1567, 1567, 1567, 1567, 1567, 1567, 1567, 1560, 1567, 1560, 1567, 1567, 1560, 1560, 1560, 1560, 1553, 1560, 1560, 1560, 1560, 1560, 1560, 1560, 1567, 1567, 1567, 1567, 1553, 1553, 1553, 1553, 1553, 1553, 1553, 1560, 1560, 1560, 1560, 1560, 1560, 1553, 1553, 1553, 1553, 1553, 1553, 1553, 1553, 1553, 1553, 1553, 1553, 1553, 1546, 1546, 1546, 1546, 1546, 1546, 1546, 1546, 1546, 1546, 1546, 1546, 1546, 1546, 1546, 1546, 1546, 1546, 1546, 1546, 1546, 1546, 1546, 1546, 1546, 1546, 1546, 1546, 1546, 1546, 1546, 1546, 1546, 1546, 1546, 1546, 1546, 1539, 1539, 1539, 1539, 1539, 1539, 1539, 1539, 1539, 1539, 1539, 1539, 1532, 1532, 1532, 1539, 1539, 1532, 1539, 1532, 1532, 1532, 1532, 1532, 1532, 1532, 1532, 1539, 1539, 1539, 1539, 1532, 1532, 1532, 1532, 1525, 1525, 1525, 1525, 1532, 1532, 1532, 1532, 1532, 1532, 1532, 1532, 1532, 1532, 1525, 1532, 1532, 1532, 1532, 1532, 1532, 1532, 1532, 1532, 1532, 1525, 1525, 1525, 1525, 1525, 1525, 1525, 1532, 1532, 1532, 1532, 1532, 1532, 1532, 1532, 1532, 1532, 1525, 1525, 1525, 1532, 1525, 1532, 1532, 1532, 1532, 1532, 1532, 1525, 1525, 1525, 1525, 1519, 1519, 1525, 1525, 1525, 1525, 1525, 1525, 1525, 1525, 1525, 1525, 1532, 1532, 1532, 1532, 1532, 1532, 1532, 1532, 1525, 1525, 1525, 1525, 1525, 1525, 1525, 1532, 1532, 1532, 1525, 1532, 1532, 1532, 1532, 1525, 1525, 1525, 1525, 1525, 1525, 1519, 1519, 1532, 1532, 1525, 1519, 1525, 1525, 1525, 1525, 1525, 1525, 1525, 1519, 1519, 1519, 1519, 1519, 1519, 1519, 1519, 1519, 1519, 1519, 1519, 1519, 1519, 1519, 1519, 1519, 1519, 1519, 1519, 1519, 1519, 1519, 1519, 1519, 1519, 1525, 1525, 1519, 1519, 1519, 1519, 1519, 1519, 1512, 1519, 1519, 1519, 1519, 1519, 1512, 1512, 1519, 1519, 1512, 1519, 1519, 1519, 1519, 1519, 1512, 1512, 1519, 1512, 1512, 1512, 1512, 1512, 1512, 1512, 1512, 1512, 1512, 1512, 1512, 1512, 1512, 1512, 1512, 1512, 1512, 1512, 1512, 1512, 1506, 1506, 1506, 1512
1603, 1603, 1603, 1603, 1603, 1603, 1603, 1603, 1603, 1603, 1603, 1603, 1611, 1611, 1611, 1611, 1611, 1611, 1611, 1611, 1611, 1611, 1618, 1611, 1618, 1611, 1611, 1611, 1611, 1611, 1611, 1611, 1603, 1603, 1603, 1611, 1611, 1611, 1611, 1603, 1603, 1611, 1611, 1611, 1603, 1603, 1603, 1603, 1603, 1603, 1603, 1603, 1603, 1603, 1611, 1611, 1611, 1611, 1603, 1603, 1603, 1603, 1603, 1603, 1603, 1603, 1603, 1603, 1603, 1603, 1603, 1603, 1603, 1603, 1596, 1596, 1596, 1596, 1603, 1596, 1596, 1596, 1596, 1596, 1603, 1596, 1596, 1596, 1596, 1596, 1596, 1596, 1596, 1596, 1596, 1596, 1596, 1589, 1596, 1596, 1596, 1589, 1596, 1596, 1596, 1596, 1596, 1589, 1596, 1596, 1589, 1596, 1596, 1589, 1589, 1581, 1581, 1581, 1581, 1581, 1574, 1574, 1574, 1574, 1581, 1581, 1581, 1581, 1581, 1574, 1574, 1574, 1574, 1574, 1574, 1574, 1574, 1574, 1574, 1574, 1574, 1574, 1574, 1574, 1574, 1574, 1574, 1574, 1574, 1574, 1574, 1574, 1574, 1574, 1574, 1574, 1574, 1574, 1567, 1574, 1567, 1574, 1567, 1567, 1567, 1567, 1567, 1560, 1560, 1560, 1560, 1560, 1560, 1553, 1553, 1553, 1560, 1553, 1560, 1560, 1567, 1560, 1567, 1567, 1567, 1567, 1560, 1560, 1560, 1560, 1567, 1560, 1560, 1560, 1560, 1560, 1560, 1560, 1553, 1560, 1553, 1553, 1553, 1553, 1560, 1560, 1560, 1560, 1560, 1560, 1567, 1560, 1553, 1546, 1546, 1546, 1553, 1546, 1546, 1546, 1553, 1553, 1553, 1553, 1553, 1553, 1553, 1553, 1553, 1553, 1553, 1553, 1546, 1553, 1546, 1553, 1553, 1553, 1546, 1546, 1546, 1546, 1546, 1546, 1546, 1546, 1546, 1546, 1546, 1546, 1546, 1546, 1546, 1546, 1546, 1539, 1539, 1539, 1539, 1539, 1539, 1546, 1546, 1546, 1546, 1546, 1546, 1546, 1546, 1546, 1546, 1539, 1546, 1546, 1546, 1539, 1539, 1539, 1539, 1539, 1539, 1539, 1539, 1539, 1539, 1539, 1539, 1532, 1532, 1532, 1532, 1532, 1532, 1532, 1532, 1532, 1532, 1532, 1525, 1525, 1525, 1525, 1525, 1525, 1532, 1532, 1532, 1532, 1532, 1532, 1532, 1532, 1525, 1525, 1525, 1519, 1525, 1525, 1519, 1519, 1525, 1525, 1525, 1525, 1525, 1525, 1525, 1525, 1525, 1525, 1525, 1532, 1525, 1525, 1525, 1525, 1525, 1525, 1525, 1519, 1519, 1519, 1525, 1525, 1525, 1532, 1532, 1532, 1532, 1525, 1532, 1525, 1525, 1532, 1525, 1525, 1525, 1525, 1525, 1525, 1525, 1532, 1532, 1525, 1525, 1525, 1525, 1525, 1519, 1519, 1519, 1519, 1525, 1525, 1519, 1519, 1519, 1519, 1519, 1519, 1519, 1525, 1525, 1525, 1532, 1532, 1532, 1525, 1525, 1525, 1525, 1525, 1519, 1525, 1525, 1525, 1525, 1525, 1525, 1519, 1525, 1525, 1525, 1525, 1525, 1519, 1519, 1525, 1519, 1519, 1519, 1519, 1519, 1519, 1519, 1519, 1519, 1519, 1525, 1519, 1525, 1525, 1525, 1519, 1519, 1519, 1519, 1519, 1512, 1512, 1512, 1519, 1519, 1519, 1519, 1519, 1519, 1519, 1512, 1519, 1519, 1519, 1519, 1519, 1519, 1519, 1519, 1519, 1519, 1519, 1519, 1519, 1519, 1519, 1519, 1519, 1512, 1512, 1519, 1519, 1519, 1519, 1519, 1512, 1512, 1519, 1512, 1512, 1519, 1512, 1519, 1512, 1512, 1512, 1512, 1512, 1512, 1512, 1512, 1512, 1512, 1512, 1512, 1512, 1512, 1512, 1512, 1512, 1512, 1506, 1512, 1512, 1512, 1512, 1512, 1512, 1512, 1512, 1506, 1506, 1506
1603, 1603, 1603, 1603, 1603, 1603, 1603, 1603, 1603, 1603, 1603, 1603, 1603, 1603, 1611, 1611, 1611, 1611, 1611, 1611, 1611, 1611, 1611, 1611, 1611, 1611, 1603, 1603, 1611, 1603, 1603, 1603, 1603, 1603, 1603, 1603, 1603, 1603, 1603, 1603, 1603, 1603, 1603, 1603, 1603, 1603, 1603, 1603, 1603, 1603, 1603, 1603, 1603, 1603, 1603, 1611, 1611, 1611, 1603, 1603, 1603, 1596, 1603, 1603, 1596, 1603, 1603, 1603, 1603, 1596, 1596, 1603, 1596, 1596, 1596, 1596, 1596, 1596, 1596, 1596, 1596, 1596, 1596, 1596, 1596, 1596, 1596, 1596, 1596, 1596, 1596, 1589, 1589, 1589, 1589, 1589, 1589, 1589, 1589, 1589, 1589, 1589, 1589, 1589, 1589, 1589, 1589, 1589, 1589, 1589, 1589, 1589, 1589, 1589, 1581, 1581, 1581, 1581, 1581, 1574, 1574, 1574, 1574, 1574, 1574, 1574, 1574, 1574, 1574, 1574, 1574, 1574, 1574, 1574, 1574, 1574, 1574, 1574, 1574, 1574, 1574, 1574, 1567, 1574, 1574, 1574, 1574, 1574, 1574, 1574, 1574, 1574, 1574, 1574, 1574, 1574, 1574, 1567, 1567, 1567, 1567, 1567, 1567, 1567, 1567, 1567, 1560, 1560, 1553, 1560, 1560, 1553, 1553, 1553, 1553, 1553, 1560, 1560, 1560, 1560, 1560, 1560, 1560, 1560, 1560, 1560, 1560, 1560, 1560, 1560, 1560, 1560, 1560, 1560, 1560, 1560, 1553, 1553, 1553, 1553, 1553, 1553, 1553, 1560, 1560, 1560, 1560, 1560, 1560, 1560, 1560, 1546, 1546, 1546, 1546, 1546, 1553, 1546, 1546, 1546, 1546, 1553, 1546, 1546, 1546, 1546, 1546, 1546, 1546, 1546, 1546, 1546, 1546, 1546, 1546, 1546, 1546, 1546, 1546, 1546, 1546, 1546, 1546, 1546, 1546, 1546, 1546, 1546, 1546, 1546, 1546, 1546, 1546, 1539, 1539, 1539, 1539, 1539, 1539, 1539, 1539, 1539, 1539, 1539, 1539, 1539, 1546, 1539, 1539, 1539, 1539, 1539, 1539, 1539, 1539, 1539, 1539, 1539, 1539, 1539, 1539, 1539, 1532, 1532, 1532, 1532, 1532, 1532, 1525, 1525, 1525, 1525, 1532, 1532, 1532, 1525, 1525, 1525, 1525, 1525, 1519, 1519, 1519, 1525, 1525, 1525, 1532, 1532, 1525, 1525, 1532, 1525, 1525, 1525, 1519, 1519, 1519, 1519, 1519, 1519, 1519, 1519, 1519, 1525, 1525, 1525, 1525, 1525, 1525, 1525, 1525, 1525, 1525, 1525, 1525, 1519, 1525, 1519, 1519, 1519, 1519, 1519, 1519, 1525, 1525, 1525, 1525, 1525, 1525, 1525, 1525, 1525, 1525, 1525, 1525, 1525, 1519, 1525, 1525, 1525, 1525, 1525, 1525, 1525, 1525, 1525, 1525, 1519, 1519, 1519, 1519, 1519, 1519, 1525, 1519, 1519, 1519, 1519, 1519, 1519, 1519, 1519, 1519, 1525, 1525, 1525, 1525, 1525, 1525, 1519, 1519, 1519, 1519, 1519, 1519, 1519, 1519, 1519, 1525, 1519, 1519, 1519, 1525, 1525, 1519, 1519, 1519, 1519, 1519, 1519, 1519, 1519, 1519, 1519, 1519, 1519, 1519, 1519, 1519, 1519, 1519, 1519, 1525, 1519, 1519, 1519, 1519, 1519, 1512, 1512, 1512, 1519, 1512, 1512, 1519, 1512, 1519, 1519, 1512, 1512, 1512, 1512, 1512, 1519, 1519, 1519, 1519, 1519, 1519, 1519, 1519, 1512, 1512, 1512, 1519, 1519, 1512, 1512, 1512, 1512, 1512, 1512, 1512, 1512, 1512, 1512, 1512, 1512, 1519, 1512, 1512, 1512, 1512, 1512, 1512, 1512, 1512, 1512, 1506, 1512, 1506, 1512, 1512, 1506, 1506, 1506, 1506, 1506, 1512, 1506, 1512, 1512, 1512, 1512, 1512, 1512, 1506, 1506, 1506, 1499, 1499
1596, 1603, 1596, 1596, 1596, 1603, 1603, 1603, 1603, 1603, 1603, 1603, 1603, 1596, 1611, 1611, 1611, 1603, 1603, 1603, 1603, 1603, 1611, 1603, 1603, 1603, 1603, 1603, 1603, 1603, 1603, 1603, 1603, 1603, 1603, 1603, 1603, 1596, 1596, 1596, 1596, 1596, 1603, 1603, 1603, 1603, 1596, 1603, 1596, 1596, 1596, 1596, 1596, 1596, 1603, 1603, 1603, 1603, 1596, 1603, 1596, 1596, 1596, 1596, 1596, 1596, 1596, 1596, 1596, 1596, 1596, 1596, 1603, 1603, 1596, 1596, 1596, 1596, 1596, 1589, 1589, 1589, 1589, 1596, 1596, 1596, 1596, 1596, 1596, 1596, 1589, 1589, 1589, 1589, 1589, 1589, 1589, 1589, 1589, 1589, 1589, 1589, 1589, 1589, 1581, 1589, 1589, 1581, 1581, 1581, 1574, 1581, 1581, 1581, 1574, 1574, 1574, 1574, 1574, 1574, 1574, 1574, 1574, 1574, 1574, 1574, 1574, 1574, 1574, 1574, 1574, 1574, 1574, 1574, 1574, 1574, 1567, 1574, 1567, 1567, 1567, 1567, 1567, 1567, 1574, 1567, 1574, 1574, 1574, 1574, 1574, 1574, 1567, 1567, 1567, 1567, 1567, 1567, 1567, 1567, 1567, 1567, 1567, 1567, 1567, 1560, 1560, 1553, 1553, 1553, 1553, 1553, 1553, 1553, 1553, 1560, 1560, 1553, 1560, 1560, 1560, 1560, 1560, 1560, 1560, 1560, 1560, 1560, 1553, 1553, 1560, 1553, 1553, 1553, 1553, 1553, 1553, 1546, 1546, 1546, 1546, 1553, 1553, 1553, 1553, 1560, 1560, 1560, 1553, 1553, 1553, 1546, 1546, 1546, 1546, 1546, 1546, 1546, 1546, 1546, 1546, 1546, 1546, 1546, 1546, 1546, 1546, 1546, 1546, 1546, 1546, 1546, 1546, 1546, 1546, 1546, 1546, 1546, 1546, 1546, 1546, 1546, 1546, 1546, 1546, 1546, 1546, 1546, 1546, 1546, 1546, 1546, 1539, 1539, 1539, 1539, 1539, 1539, 1532, 1539, 1539, 1539, 1539, 1539, 1539, 1539, 1539, 1539, 1539, 1539, 1539, 1539, 1539, 1539, 1539, 1539, 1539, 1539, 1532, 1539, 1539, 1532, 1532, 1532, 1532, 1532, 1532, 1525, 1525, 1525, 1525, 1525, 1525, 1525, 1525, 1525, 1525, 1525, 1519, 1519, 1519, 1519, 1519, 1519, 1519, 1519, 1519, 1525, 1525, 1525, 1525, 1525, 1519, 1519, 1519, 1519, 1519, 1519, 1519, 1519, 1519, 1519, 1519, 1519, 1519, 1519, 1519, 1519, 1525, 1519, 1519, 1525, 1519, 1525, 1525, 1519, 1519, 1519, 1519, 1519, 1519, 1519, 1519, 1519, 1519, 1519, 1525, 1519, 1525, 1525, 1525, 1525, 1525, 1525, 1519, 1519, 1519, 1519, 1519, 1519, 1519, 1519, 1519, 1519, 1519, 1519, 1519, 1519, 1519, 1519, 1519, 1519, 1519, 1519, 1519, 1519, 1519, 1519, 1512, 1512, 1512, 1512, 1519, 1519, 1519, 1519, 1519, 1519, 1519, 1519, 1519, 1519, 1512, 1512, 1512, 1519, 1519, 1519, 1519, 1519, 1519, 1519, 1519, 1519, 1519, 1519, 1519, 1519, 1519, 1519, 1512, 1512, 1512, 1519, 1512, 1519, 1519, 1519, 1519, 1519, 1519, 1519, 1519, 1519, 1519, 1519, 1512, 1512, 1512, 1512, 1512, 1512, 1512, 1512, 1519, 1512, 1512, 1512, 1512, 1512, 1512, 1512, 1512, 1512, 1512, 1512, 1512, 1512, 1512, 1512, 1512, 1512, 1512, 1512, 1512, 1512, 1506, 1506, 1512, 1512, 1512, 1512, 1512, 1512, 1512, 1512, 1512, 1512, 1512, 1512, 1512, 1512, 1512, 1512, 1512, 1512, 1506, 1506, 1506, 1512, 1506, 1512, 1506, 1506, 1506, 1506, 1506, 1506, 1506, 1506, 1506, 1506, 1506, 1512, 1506, 1506, 1499, 1506, 1506, 1499, 1499
1596, 1596, 1596, 1596, 1596, 1603, 1603, 1596, 1596, 1596, 1596, 1596, 1596, 1596, 1596, 1603, 1603, 1603, 1603, 1603, 1603, 1603, 1603, 1603, 1603, 1603, 1603, 1603, 1603, 1603, 1603, 1596, 1596, 1596, 1596, 1596, 1596, 1596, 1596, 1603, 1603, 1603, 1596, 1596, 1596, 1596, 1596, 1596, 1596, 1596, 1596, 1596, 1596, 1596, 1596, 1596, 1603, 1603, 1596, 1603, 1596, 1596, 1596, 1596, 1596, 1596, 1596, 1596, 1596, 1596, 1596, 1596, 1596, 1596, 1596, 1596, 1589, 1589, 1589, 1589, 1589, 1589, 1581, 1589, 1596, 1596, 1589, 1596, 1589, 1589, 1589, 1581, 1581, 1581, 1581, 1581, 1581, 1581, 1589, 1589, 1589, 1581, 1589, 1581, 1581, 1581, 1581, 1581, 1574, 1574, 1574, 1574, 1581, 1581, 1574, 1574, 1574, 1574, 1574, 1574, 1574, 1567, 1567, 1567, 1567, 1574, 1574, 1574, 1574, 1574, 1574, 1567, 1567, 1567, 1567, 1567, 1567, 1567, 1567, 1567, 1567, 1567, 1567, 1567, 1567, 1567, 1567, 1567, 1574, 1567, 1567, 1567, 1567, 1567, 1567, 1567, 1567, 1567, 1567, 1567, 1560, 1560, 1560, 1560, 1560, 1560, 1553, 1553, 1553, 1553, 1553, 1553, 1553, 1546, 1553, 1553, 1553, 1553, 1553, 1553, 1560, 1553, 1553, 1553, 1553, 1553, 1553, 1553, 1553, 1553, 1553, 1553, 1553, 1553, 1553, 1553, 1546, 1546, 1546, 1546, 1546, 1546, 1553, 1553, 1553, 1553, 1560, 1560, 1553, 1553, 1553, 1546, 1546, 1546, 1546, 1546, 1546, 1546, 1546, 1546, 1546, 1546, 1546, 1539, 1546, 1546, 1546, 1546, 1546, 1546, 1546, 1546, 1539, 1539, 1539, 1539, 1539, 1539, 1539, 1539, 1539, 1539, 1539, 1539, 1539, 1546, 1546, 1539, 1539, 1539, 1539, 1539, 1539, 1539, 1539, 1539, 1539, 1532, 1532, 1539, 1539, 1539, 1539, 1539, 1539, 1539, 1539, 1539, 1539, 1532, 1539, 1539, 1532, 1532, 1532, 1532, 1532, 1532, 1532, 1532, 1532, 1532, 1532, 1532, 1525, 1525, 1525, 1525, 1525, 1525, 1525, 1525, 1525, 1525, 1525, 1519, 1519, 1519, 1519, 1519, 1519, 1519, 1519, 1519, 1519, 1519, 1519, 1519, 1519, 1519, 1519, 1525, 1519, 1519, 1519, 1519, 1519, 1519, 1519, 1519, 1519, 1519, 1519, 1519, 1519, 1519, 1519, 1519, 1519, 1519, 1519, 1519, 1519, 1519, 1519, 1519, 1519, 1519, 1519, 1519, 1519, 1519, 1519, 1519, 1519, 1519, 1519, 1519, 1519, 1519, 1519, 1519, 1519, 1519, 1519, 1519, 1519, 1519, 1519, 1519, 1519, 1519, 1519, 1519, 1519, 1519, 1519, 1519, 1519, 1519, 1519, 1519, 1519, 1519, 1519, 1519, 1519, 1519, 1512, 1512, 1512, 1512, 1519, 1519, 1512, 1519, 1519, 1519, 1519, 1512, 1512, 1512, 1512, 1512, 1512, 1512, 1519, 1519, 1519, 1519, 1519, 1519, 1519, 1519, 1512, 1512, 1512, 1512, 1512, 1519, 1512, 1512, 1519, 1519, 1519, 1519, 1512, 1512, 1512, 1519, 1519, 1519, 1519, 1512, 1519, 1512, 1512, 1512, 1512, 1512, 1512, 1512, 1512, 1512, 1512, 1512, 1512, 1512, 1512, 1512, 1512, 1512, 1512, 1512, 1512, 1512, 1512, 1512, 1512, 1512, 1512, 1506, 1506, 1512, 1512, 1512, 1506, 1506, 1506, 1512, 1506, 1506, 1506, 1506, 1512, 1506, 1506, 1506, 1506, 1512, 1512, 1506, 1506, 1506, 1506, 1506, 1506, 1506, 1506, 1506, 1506, 1506, 1506, 1506, 1499, 1499, 1499, 1499, 1499, 1499, 1499, 1499, 1499, 1506, 1506, 1506, 1492, 1506, 1499, 1499, 1499
1596, 1596, 1589, 1596, 1596, 1596, 1596, 1596, 1596, 1596, 1596, 1596, 1596, 1596, 1596, 1603, 1603, 1596, 1603, 1596, 1596, 1596, 1603, 1603, 1603, 1603, 1596, 1596, 1596, 1596, 1596, 1596, 1596, 1596, 1596, 1596, 1596, 1596, 1596, 1596, 1596, 1596, 1603, 1603, 1596, 1596, 1596, 1596, 1596, 1596, 1596, 1596, 1596, 1596, 1596, 1596, 1603, 1596, 1596, 1596, 1596, 1596, 1596, 1596, 1596, 1596, 1596, 1589, 1596, 1596, 1596, 1596, 1596, 1596, 1596, 1589, 1589, 1589, 1581, 1581, 1581, 1581, 1581, 1581, 1581, 1589, 1581, 1581, 1581, 1581, 1581, 1581, 1581, 1581, 1581, 1581, 1581, 1581, 1581, 1589, 1581, 1581, 1589, 1581, 1581, 1581, 1581, 1581, 1574, 1574, 1574, 1574, 1574, 1574, 1574, 1574, 1574, 1574, 1574, 1574, 1567, 1567, 1567, 1567, 1567, 1567, 1567, 1567, 1567, 1567, 1567, 1567, 1567, 1567, 1567, 1567, 1567, 1567, 1567, 1567, 1560, 1567, 1567, 1567, 1567, 1567, 1567, 1567, 1567, 1567, 1567, 1567, 1560, 1560, 1560, 1560, 1560, 1560, 1560, 1560, 1560, 1560, 1560, 1560, 1560, 1553, 1553, 1553, 1553, 1553, 1553, 1546, 1546, 1546, 1546, 1553, 1553, 1553, 1553, 1553, 1553, 1553, 1553, 1546, 1546, 1546, 1546, 1546, 1546, 1546, 1553, 1553, 1553, 1546, 1546, 1546, 1546, 1546, 1546, 1546, 1546, 1546, 1546, 1546, 1553, 1553, 1553, 1553, 1553, 1553, 1553, 1546, 1546, 1546, 1546, 1546, 1546, 1546, 1546, 1546, 1546, 1539, 1539, 1539, 1539, 1539, 1539, 1539, 1539, 1539, 1539, 1546, 1539, 1539, 1539, 1539, 1539, 1539, 1539, 1539, 1539, 1539, 1539, 1539, 1539, 1539, 1539, 1539, 1539, 1539, 1539, 1539, 1539, 1539, 1539, 1532, 1532, 1532, 1532, 1532, 1532, 1532, 1532, 1532, 1532, 1539, 1539, 1532, 1532, 1532, 1532, 1532, 1532, 1525, 1525, 1525, 1525, 1525, 1525, 1525, 1532, 1525, 1525, 1525, 1525, 1525, 1525, 1519, 1519, 1519, 1519, 1519, 1519, 1525, 1519, 1519, 1519, 1519, 1519, 1519, 1519, 1519, 1519, 1519, 1519, 1519, 1519, 1519, 1519, 1519, 1519, 1519, 1519, 1519, 1519, 1519, 1519, 1519, 1512, 1519, 1519, 1519, 1519, 1512, 1519, 1519, 1519, 1519, 1519, 1519, 1519, 1519, 1519, 1519, 1519, 1512, 1512, 1512, 1512, 1512, 1512, 1512, 1519, 1519, 1519, 1519, 1519, 1512, 1512, 1512, 1512, 1512, 1519, 1519, 1519, 1519, 1519, 1519, 1519, 1519, 1519, 1519, 1519, 1519, 1519, 1519, 1519, 1512, 1512, 1512, 1512, 1512, 1519, 1519, 1512, 1512, 1512, 1512, 1512, 1512, 1512, 1512, 1512, 1512, 1512, 1512, 1512, 1519, 1512, 1512, 1512, 1512, 1512, 1512, 1512, 1512, 1512, 1519, 1512, 1512, 1519, 1512, 1512, 1512, 1512, 1512, 1512, 1512, 1512, 1512, 1512, 1512, 1519, 1519, 1512, 1512, 1512, 1512, 1512, 1512, 1512, 1512, 1519, 1512, 1512, 1512, 1512, 1512, 1512, 1512, 1512, 1512, 1506, 1506, 1512, 1506, 1506, 1512, 1512, 1512, 1512, 1512, 1512, 1512, 1512, 1512, 1506, 1506, 1506, 1506, 1506, 1506, 1506, 1506, 1512, 1506, 1506, 1506, 1499, 1499, 1499, 1506, 1499, 1506, 1506, 1512, 1506, 1506, 1506, 1512, 1506, 1506, 1506, 1499, 1506, 1506, 1506, 1499, 1499, 1506, 1499, 1506, 1499, 1499, 1499, 1499, 1499, 1492, 1499, 1492, 1492, 1492, 1492, 1499, 1492, 1492, 1492, 1499, 1499, 1499, 1492
1596, 1596, 1589, 1589, 1589, 1596, 1596, 1596, 1596, 1596, 1596, 1596, 1596, 1596, 1596, 1596, 1596, 1596, 1596, 1596, 1596, 1596, 1596, 1596, 1596, 1596, 1596, 1596, 1596, 1596, 1596, 1596, 1589, 1596, 1596, 1589, 1596, 1596, 1596, 1596, 1596, 1596, 1596, 1596, 1596, 1596, 1596, 1596, 1596, 1596, 1596, 1596, 1596, 1596, 1596, 1596, 1596, 1596, 1596, 1596, 1596, 1596, 1589, 1596, 1589, 1589, 1589, 1589, 1589, 1589, 1596, 1589, 1596, 1589, 1589, 1589, 1589, 1581, 1581, 1574, 1574, 1574, 1574, 1574, 1581, 1581, 1581, 1581, 1581, 1581, 1581, 1574, 1574, 1574, 1574, 1574, 1574, 1581, 1581, 1581, 1581, 1581, 1589, 1581, 1581, 1574, 1574, 1574, 1574, 1574, 1574, 1574, 1574, 1574, 1574, 1574, 1574, 1574, 1574, 1567, 1567, 1567, 1567, 1567, 1567, 1567, 1567, 1567, 1567, 1567, 1567, 1567, 1567, 1567, 1567, 1560, 1560, 1560, 1560, 1560, 1553, 1560, 1560, 1560, 1560, 1560, 1560, 1560, 1567, 1560, 1560, 1560, 1560, 1560, 1560, 1560, 1560, 1560, 1560, 1560, 1560, 1560, 1553, 1553, 1546, 1553, 1546, 1546, 1546, 1546, 1546, 1546, 1546, 1546, 1546, 1553, 1546, 1553, 1553, 1553, 1553, 1553, 1546, 1546, 1546, 1546, 1546, 1546, 1546, 1546, 1553, 1553, 1546, 1546, 1546, 1546, 1546, 1546, 1539, 1546, 1546, 1546, 1546, 1546, 1546, 1546, 1546, 1546, 1553, 1546, 1546, 1539, 1539, 1539, 1539, 1539, 1546, 1539, 1539, 1539, 1539, 1539, 1539, 1539, 1539, 1539, 1539, 1539, 1539, 1539, 1539, 1539, 1539, 1539, 1539, 1539, 1539, 1539, 1532, 1539, 1539, 1539, 1539, 1539, 1532, 1539, 1532, 1532, 1532, 1532, 1532, 1532, 1532, 1532, 1532, 1532, 1532, 1532, 1525, 1532, 1532, 1532, 1532, 1532, 1532, 1532, 1532, 1532, 1532, 1525, 1525, 1525, 1525, 1525, 1525, 1519, 1519, 1525, 1525, 1525, 1525, 1525, 1525, 1525, 1519, 1519, 1519, 1519, 1519, 1519, 1519, 1519, 1519, 1519, 1519, 1519, 1519, 1519, 1519, 1519, 1519, 1519, 1519, 1512, 1512, 1512, 1512, 1512, 1512, 1512, 1512, 1519, 1512, 1512, 1519, 1519, 1519, 1512, 1512, 1512, 1512, 1512, 1512, 1512, 1512, 1512, 1512, 1519, 1519, 1512, 1512, 1512, 1512, 1512, 1512, 1512, 1512, 1512, 1512, 1512, 1512, 1512, 1512, 1519, 1519, 1512, 1519, 1512, 1512, 1512, 1512, 1512, 1519, 1519, 1519, 1519, 1519, 1519, 1519, 1519, 1519, 1519, 1519, 1519, 1512, 1512, 1512, 1512, 1512, 1512, 1512, 1512, 1512, 1512, 1512, 1512, 1512, 1512, 1512, 1512, 1512, 1512, 1512, 1512, 1506, 1512, 1512, 1512, 1512, 1506, 1506, 1506, 1512, 1512, 1506, 1512, 1512, 1512, 1512, 1512, 1512, 1512, 1512, 1512, 1512, 1512, 1512, 1512, 1512, 1512, 1512, 1512, 1512, 1512, 1512, 1512, 1512, 1512, 1512, 1512, 1512, 1512, 1512, 1512, 1512, 1512, 1512, 1512, 1512, 1512, 1512, 1512, 1506, 1506, 1506, 1506, 1506, 1506, 1506, 1506, 1512, 1512, 1512, 1512, 1512, 1506, 1506, 1506, 1499, 1499, 1499, 1499, 1499, 1499, 1506, 1506, 1499, 1499, 1499, 1499, 1492, 1499, 1499, 1499, 1506, 1499, 1499, 1499, 1499, 1499, 1499, 1499, 1492, 1492, 1492, 1506, 1499, 1499, 1499, 1499, 1499, 1499, 1499, 1499, 1499, 1499, 1492, 1492, 1499, 1492, 1492, 1492, 1492, 1492, 1492, 1492, 1492, 1492, 1492, 1492, 1492
1596, 1596, 1589, 1589, 1589, 1596, 1596, 1589, 1589, 1589, 1589, 1596, 1589, 1589, 1596, 1589, 1596, 1596, 1596, 1596, 1596, 1596, 1596, 1596, 1596, 1596, 1596, 1596, 1589, 1596, 1589, 1589, 1589, 1589, 1589, 1589, 1589, 1596, 1589, 1589, 1589, 1596, 1596, 1596, 1596, 1589, 1596, 1589, 1589, 1589, 1589, 1596, 1596, 1596, 1596, 1596, 1596, 1596, 1596, 1589, 1589, 1596, 1589, 1589, 1589, 1581, 1581, 1581, 1581, 1581, 1589, 1589, 1589, 1589, 1589, 1589, 1581, 1581, 1574, 1574, 1574, 1574, 1574, 1574, 1574, 1581, 1574, 1574, 1574, 1574, 1581, 1574, 1574, 1574, 1574, 1574, 1574, 1574, 1581, 1574, 1581, 1581, 1581, 1581, 1574, 1574, 1574, 1574, 1574, 1574, 1567, 1567, 1574, 1574, 1574, 1574, 1574, 1567, 1567, 1567, 1567, 1567, 1567, 1567, 1567, 1567, 1567, 1567, 1560, 1567, 1567, 1567, 1560, 1560, 1567, 1560, 1560, 1560, 1553, 1560, 1553, 1553, 1553, 1560, 1553, 1553, 1553, 1553, 1560, 1553, 1560, 1546, 1546, 1553, 1553, 1553, 1560, 1560, 1560, 1553, 1553, 1560, 1553, 1546, 1546, 1546, 1546, 1546, 1546, 1546, 1546, 1546, 1546, 1546, 1546, 1546, 1553, 1546, 1546, 1546, 1546, 1546, 1546, 1546, 1546, 1546, 1546, 1546, 1546, 1546, 1546, 1546, 1546, 1546, 1546, 1546, 1539, 1539, 1539, 1539, 1539, 1539, 1546, 1546, 1546, 1546, 1546, 1546, 1546, 1546, 1546, 1546, 1539, 1539, 1539, 1539, 1539, 1539, 1539, 1539, 1539, 1532, 1532, 1532, 1532, 1539, 1539, 1539, 1539, 1539, 1539, 1539, 1539, 1539, 1532, 1539, 1532, 1532, 1532, 1532, 1539, 1539, 1539, 1532, 1532, 1532, 1532, 1525, 1525, 1525, 1525, 1525, 1525, 1525, 1525, 1525, 1525, 1525, 1525, 1525, 1525, 1525, 1525, 1525, 1525, 1525, 1532, 1525, 1525, 1525, 1525, 1525, 1525, 1519, 1519, 1519, 1519, 1519, 1519, 1519, 1519, 1519, 1519, 1519, 1519, 1519, 1519, 1519, 1519, 1519, 1519, 1519, 1519, 1519, 1519, 1519, 1519, 1519, 1519, 1519, 1519, 1519, 1519, 1519, 1519, 1512, 1512, 1512, 1512, 1512, 1512, 1512, 1512, 1512, 1512, 1512, 1512, 1512, 1512, 1512, 1512, 1512, 1512, 1512, 1512, 1512, 1512, 1512, 1512, 1512, 1512, 1512, 1512, 1512, 1512, 1512, 1512, 1512, 1512, 1512, 1512, 1512, 1512, 1512, 1512, 1512, 1512, 1512, 1512, 1506, 1506, 1512, 1512, 1512, 1512, 1519, 1519, 1512, 1519, 1519, 1512, 1519, 1519, 1512, 1512, 1512, 1512, 1512, 1512, 1512, 1512, 1512, 1512, 1512, 1512, 1512, 1512, 1512, 1512, 1512, 1512, 1512, 1512, 1506, 1506, 1506, 1506, 1506, 1506, 1506, 1506, 1506, 1506, 1506, 1506, 1506, 1506, 1512, 1512, 1512, 1512, 1512, 1512, 1506, 1512, 1506, 1512, 1512, 1512, 1512, 1512, 1512, 1512, 1512, 1512, 1512, 1512, 1506, 1506, 1512, 1506, 1506, 1512, 1506, 1512, 1512, 1512, 1506, 1506, 1506, 1506, 1506, 1506, 1506, 1506, 1499, 1499, 1499, 1506, 1506, 1506, 1506, 1506, 1506, 1506, 1499, 1499, 1499, 1499, 1499, 1499, 1499, 1499, 1499, 1499, 1499, 1499, 1499, 1499, 1492, 1492, 1492, 1492, 1492, 1499, 1492, 1499, 1492, 1499, 1492, 1492, 1492, 1492, 1499, 1499, 1499, 1499, 1492, 1492, 1492, 1492, 1492, 1492, 1492, 1492, 1492, 1492, 1492, 1492, 1486, 1492, 1492, 1486, 1492, 1492, 1492, 1492, 1492, 1492, 1492, 1492
1589, 1589, 1589, 1581, 1589, 1589, 1589, 1589, 1589, 1589, 1589, 1589, 1589, 1589, 1589, 1589, 1589, 1589, 1596, 1596, 1596, 1596, 1596, 1596, 1596, 1596, 1589, 1589, 1589, 1589, 1581, 1581, 1581, 1581, 1589, 1581, 1581, 1589, 1589, 1589, 1589, 1589, 1589, 1589, 1596, 1589, 1589, 1589, 1589, 1589, 1589, 1596, 1596, 1596, 1589, 1589, 1596, 1596, 1596, 1589, 1589, 1589, 1589, 1589, 1581, 1581, 1581, 1581, 1581, 1581, 1581, 1581, 1589, 1589, 1581, 1581, 1581, 1581, 1574, 1574, 1574, 1574, 1574, 1574, 1574, 1574, 1574, 1574, 1574, 1574, 1574, 1574, 1574, 1574, 1574, 1574, 1574, 1574, 1574, 1574, 1574, 1574, 1574, 1574, 1574, 1567, 1574, 1574, 1574, 1567, 1567, 1567, 1567, 1567, 1567, 1567, 1567, 1567, 1567, 1567, 1567, 1567, 1567, 1567, 1567, 1567, 1567, 1567, 1560, 1560, 1567, 1560, 1560, 1560, 1560, 1553, 1560, 1553, 1553, 1553, 1553, 1553, 1553, 1553, 1546, 1546, 1546, 1546, 1546, 1546, 1546, 1546, 1546, 1546, 1546, 1553, 1553, 1553, 1553, 1553, 1546, 1553, 1546, 1546, 1546, 1546, 1546, 1546, 1546, 1539, 1546, 1546, 1546, 1546, 1546, 1546, 1546, 1546, 1546, 1546, 1546, 1546, 1546, 1539, 1539, 1546, 1539, 1539, 1539, 1539, 1546, 1546, 1546, 1539, 1539, 1539, 1539, 1539, 1539, 1539, 1539, 1539, 1539, 1539, 1539, 1546, 1546, 1546, 1546, 1539, 1539, 1539, 1539, 1539, 1539, 1539, 1539, 1539, 1539, 1532, 1532, 1532, 1532, 1532, 1532, 1532, 1539, 1539, 1539, 1539, 1539, 1539, 1539, 1539, 1532, 1532, 1532, 1532, 1532, 1532, 1532, 1532, 1532, 1525, 1525, 1525, 1525, 1519, 1519, 1519, 1519, 1525, 1525, 1525, 1525, 1525, 1525, 1519, 1519, 1519, 1519, 1519, 1519, 1519, 1525, 1525, 1525, 1525, 1525, 1519, 1519, 1519, 1519, 1519, 1519, 1519, 1519, 1519, 1519, 1519, 1512, 1519, 1519, 1519, 1519, 1519, 1519, 1519, 1519, 1519, 1519, 1512, 1512, 1512, 1512, 1512, 1512, 1512, 1512, 1512, 1519, 1519, 1519, 1512, 1512, 1512, 1512, 1512, 1512, 1512, 1512, 1512, 1512, 1512, 1512, 1512, 1512, 1512, 1506, 1512, 1512, 1512, 1512, 1512, 1512, 1512, 1512, 1512, 1512, 1512, 1512, 1512, 1512, 1512, 1506, 1506, 1506, 1512, 1512, 1512, 1512, 1512, 1512, 1512, 1512, 1512, 1512, 1512, 1512, 1506, 1506, 1506, 1506, 1512, 1512, 1512, 1512, 1512, 1512, 1512, 1512, 1512, 1512, 1512, 1512, 1512, 1512, 1512, 1512, 1512, 1512, 1506, 1512, 1512, 1512, 1512, 1512, 1512, 1512, 1512, 1512, 1512, 1512, 1506, 1506, 1506, 1499, 1499, 1506, 1506, 1499, 1499, 1499, 1499, 1506, 1506, 1506, 1506, 1506, 1506, 1512, 1512, 1506, 1506, 1506, 1506, 1512, 1512, 1512, 1512, 1506, 1506, 1512, 1512, 1506, 1506, 1506, 1506, 1506, 1506, 1506, 1506, 1506, 1506, 1506, 1506, 1506, 1506, 1506, 1506, 1506, 1506, 1499, 1499, 1499, 1499, 1499, 1499, 1499, 1499, 1499, 1499, 1499, 1499, 1499, 1499, 1499, 1499, 1492, 1499, 1499, 1499, 1499, 1499, 1499, 1499, 1499, 1492, 1492, 1492, 1492, 1492, 1492, 1492, 1492, 1492, 1492, 1492, 1492, 1492, 1492, 1492, 1486, 1486, 1492, 1492, 1492, 1492, 1492, 1492, 1492, 1492, 1486, 1486, 1486, 1486, 1486, 1486, 1486, 1486, 1486, 1486, 1486, 1486, 1486, 1486, 1486, 1492, 1492, 1492, 1492
1589, 1581, 1581, 1581, 1581, 1581, 1581, 1581, 1581, 1581, 1581, 1581, 1581, 1581, 1581, 1581, 1589, 1589, 1589, 1589, 1589, 1589, 1589, 1589, 1589, 1589, 1581, 1589, 1574, 1574, 1574, 1574, 1581, 1581, 1581, 1581, 1581, 1581, 1589, 1589, 1589, 1589, 1589, 1589, 1596, 1589, 1589, 1581, 1581, 1589, 1589, 1596, 1596, 1589, 1589, 1589, 1589, 1589, 1589, 1581, 1581, 1589, 1589, 1589, 1581, 1581, 1574, 1581, 1574, 1574, 1581, 1581, 1581, 1581, 1581, 1581, 1581, 1581, 1574, 1574, 1574, 1574, 1574, 1574, 1567, 1567, 1574, 1567, 1574, 1574, 1574, 1567, 1574, 1574, 1574, 1574, 1574, 1574, 1567, 1567, 1567, 1574, 1574, 1574, 1574, 1567, 1567, 1567, 1567, 1567, 1567, 1567, 1567, 1567, 1567, 1567, 1560, 1560, 1560, 1560, 1560, 1560, 1560, 1560, 1560, 1560, 1560, 1560, 1560, 1553, 1553, 1553, 1553, 1553, 1553, 1553, 1553, 1553, 1546, 1553, 1546, 1546, 1546, 1546, 1546, 1546, 1546, 1546, 1546, 1546, 1546, 1546, 1546, 1546, 1546, 1546, 1546, 1546, 1553, 1546, 1546, 1553, 1546, 1546, 1546, 1539, 1539, 1539, 1546, 1539, 1539, 1539, 1546, 1546, 1546, 1546, 1546, 1546, 1546, 1546, 1539, 1546, 1539, 1539, 1539, 1539, 1539, 1539, 1539, 1539, 1539, 1539, 1539, 1539, 1539, 1539, 1539, 1539, 1539, 1539, 1539, 1539, 1539, 1539, 1539, 1539, 1539, 1539, 1539, 1539, 1539, 1539, 1532, 1532, 1532, 1532, 1532, 1539, 1532, 1532, 1532, 1539, 1532, 1532, 1532, 1532, 1532, 1532, 1532, 1532, 1532, 1532, 1532, 1532, 1532, 1532, 1525, 1525, 1525, 1525, 1525, 1525, 1525, 1525, 1525, 1519, 1519, 1519, 1519, 1519, 1519, 1519, 1519, 1519, 1525, 1519, 1525, 1519, 1519, 1519, 1519, 1519, 1519, 1519, 1519, 1525, 1525, 1519, 1519, 1519, 1519, 1519, 1519, 1519, 1519, 1519, 1519, 1519, 1512, 1519, 1512, 1512, 1519, 1512, 1512, 1512, 1512, 1512, 1519, 1512, 1512, 1512, 1512, 1512, 1512, 1512, 1512, 1512, 1512, 1512, 1512, 1512, 1512, 1512, 1512, 1512, 1512, 1512, 1512, 1512, 1512, 1512, 1512, 1512, 1512, 1512, 1512, 1506, 1506, 1506, 1506, 1506, 1506, 1506, 1506, 1506, 1506, 1506, 1512, 1506, 1506, 1506, 1506, 1506, 1506, 1506, 1506, 1506, 1499, 1512, 1512, 1512, 1512, 1512, 1512, 1512, 1512, 1506, 1506, 1506, 1506, 1506, 1506, 1506, 1512, 1512, 1512, 1512, 1512, 1512, 1512, 1512, 1512, 1512, 1506, 1512, 1506, 1506, 1506, 1506, 1506, 1506, 1506, 1506, 1506, 1506, 1506, 1506, 1512, 1512, 1506, 1506, 1506, 1506, 1499, 1499, 1499, 1499, 1499, 1499, 1499, 1499, 1499, 1492, 1506, 1506, 1506, 1506, 1506, 1506, 1506, 1506, 1506, 1506, 1506, 1506, 1512, 1506, 1506, 1506, 1506, 1506, 1506, 1506, 1506, 1506, 1506, 1499, 1506, 1499, 1499, 1499, 1506, 1499, 1499, 1506, 1506, 1506, 1506, 1506, 1499, 1499, 1499, 1499, 1499, 1499, 1499, 1499, 1499, 1499, 1499, 1499, 1499, 1499, 1499, 1499, 1492, 1492, 1492, 1492, 1492, 1492, 1492, 1492, 1492, 1492, 1492, 1492, 1492, 1492, 1486, 1486, 1492, 1492, 1492, 1492, 1492, 1492, 1486, 1486, 1486, 1486, 1486, 1486, 1486, 1486, 1486, 1486, 1486, 1486, 1486, 1486, 1486, 1486, 1486, 1486, 1486, 1486, 1486, 1486, 1486, 1486, 1486, 1486, 1486, 1486, 1486, 1486, 1486, 1486, 1486
1581, 1581, 1581, 1581, 1581, 1581, 1581, 1581, 1581, 1581, 1581, 1581, 1581, 1581, 1581, 1581, 1581, 1581, 1589, 1589, 1589, 1589, 1589, 1589, 1589, 1589, 1581, 1581, 1574, 1574, 1574, 1574, 1574, 1574, 1581, 1574, 1581, 1581, 1581, 1589, 1589, 1589, 1589, 1589, 1589, 1581, 1581, 1581, 1581, 1581, 1589, 1589, 1589, 1589, 1581, 1581, 1581, 1581, 1581, 1574, 1574, 1574, 1581, 1589, 1581, 1581, 1574, 1574, 1574, 1574, 1574, 1574, 1581, 1574, 1574, 1574, 1574, 1574, 1574, 1574, 1567, 1567, 1567, 1567, 1567, 1567, 1567, 1567, 1567, 1567, 1574, 1567, 1574, 1574, 1574, 1574, 1574, 1567, 1567, 1567, 1567, 1567, 1574, 1574, 1574, 1567, 1567, 1567, 1567, 1567, 1567, 1567, 1560, 1567, 1567, 1567, 1560, 1560, 1560, 1560, 1560, 1560, 1560, 1553, 1560, 1560, 1553, 1553, 1553, 1546, 1546, 1546, 1553, 1553, 1553, 1553, 1553, 1553, 1546, 1546, 1546, 1546, 1546, 1546, 1546, 1546, 1539, 1539, 1539, 1539, 1546, 1539, 1546, 1546, 1546, 1546, 1546, 1546, 1546, 1546, 1546, 1546, 1539, 1539, 1539, 1539, 1539, 1539, 1539, 1539, 1539, 1539, 1539, 1539, 1539, 1546, 1539, 1539, 1539, 1539, 1539, 1539, 1539, 1539, 1539, 1539, 1539, 1539, 1532, 1532, 1532, 1539, 1539, 1539, 1539, 1539, 1539, 1539, 1539, 1539, 1539, 1539, 1539, 1539, 1539, 1539, 1539, 1532, 1532, 1525, 1532, 1525, 1532, 1532, 1532, 1532, 1532, 1532, 1532, 1525, 1525, 1525, 1525, 1525, 1525, 1532, 1532, 1532, 1532, 1532, 1532, 1532, 1532, 1532, 1525, 1525, 1525, 1525, 1519, 1519, 1525, 1519, 1519, 1519, 1519, 1519, 1519, 1519, 1519, 1519, 1519, 1519, 1519, 1519, 1519, 1519, 1519, 1519, 1519, 1519, 1519, 1519, 1519, 1519, 1519, 1519, 1519, 1519, 1519, 1519, 1519, 1519, 1519, 1519, 1512, 1519, 1519, 1519, 1512, 1512, 1512, 1512, 1519, 1512, 1512, 1512, 1512, 1512, 1512, 1512, 1512, 1512, 1512, 1512, 1512, 1512, 1512, 1512, 1512, 1512, 1512, 1512, 1512, 1512, 1512, 1512, 1512, 1512, 1512, 1512, 1512, 1512, 1512, 1506, 1512, 1512, 1506, 1499, 1499, 1499, 1499, 1499, 1499, 1499, 1499, 1499, 1499, 1506, 1506, 1506, 1499, 1499, 1506, 1499, 1499, 1499, 1499, 1499, 1492, 1506, 1506, 1512, 1512, 1512, 1512, 1506, 1506, 1506, 1506, 1506, 1506, 1499, 1499, 1506, 1506, 1512, 1512, 1506, 1506, 1506, 1506, 1512, 1506, 1506, 1506, 1506, 1506, 1506, 1506, 1506, 1499, 1499, 1499, 1499, 1499, 1499, 1506, 1506, 1506, 1506, 1506, 1499, 1499, 1499, 1499, 1499, 1499, 1499, 1499, 1499, 1499, 1492, 1492, 1492, 1499, 1499, 1506, 1506, 1506, 1506, 1506, 1506, 1499, 1499, 1499, 1499, 1506, 1506, 1506, 1506, 1499, 1499, 1506, 1506, 1499, 1499, 1499, 1499, 1499, 1499, 1499, 1499, 1499, 1499, 1499, 1499, 1499, 1499, 1499, 1499, 1499, 1499, 1499, 1499, 1492, 1499, 1492, 1492, 1492, 1492, 1492, 1492, 1492, 1492, 1492, 1492, 1492, 1492, 1492, 1492, 1492, 1492, 1492, 1492, 1492, 1492, 1492, 1492, 1492, 1486, 1486, 1486, 1486, 1486, 1486, 1486, 1486, 1486, 1486, 1486, 1486, 1486, 1486, 1486, 1486, 1486, 1486, 1486, 1486, 1486, 1486, 1486, 1486, 1486, 1486, 1486, 1486, 1486, 1486, 1480, 1486, 1486, 1480, 1486, 1486, 1486, 1486, 1486, 1486, 1486, 1486
1581, 1581, 1581, 1581, 1581, 1581, 1581, 1574, 1574, 1581, 1574, 1574, 1574, 1581, 1581, 1581, 1581, 1581, 1581, 1581, 1581, 1581, 1581, 1581, 1581, 1581, 1581, 1581, 1574, 1574, 1574, 1574, 1574, 1574, 1574, 1574, 1581, 1581, 1581, 1581, 1581, 1581, 1581, 1581, 1581, 1581, 1574, 1581, 1574, 1581, 1581, 1589, 1589, 1581, 1581, 1581, 1581, 1581, 1574, 1574, 1574, 1574, 1581, 1581, 1581, 1574, 1574, 1574, 1574, 1574, 1574, 1574, 1574, 1574, 1574, 1574, 1574, 1574, 1574, 1567, 1567, 1567, 1567, 1567, 1567, 1567, 1567, 1567, 1567, 1567, 1567, 1567, 1567, 1567, 1567, 1567, 1567, 1567, 1560, 1567, 1567, 1567, 1567, 1567, 1574, 1567, 1567, 1567, 1567, 1567, 1567, 1560, 1560, 1560, 1560, 1560, 1553, 1553, 1553, 1553, 1553, 1553, 1553, 1553, 1553, 1546, 1553, 1546, 1546, 1546, 1546, 1546, 1546, 1546, 1553, 1546, 1553, 1553, 1546, 1546, 1546, 1546, 1546, 1546, 1546, 1539, 1539, 1539, 1539, 1539, 1539, 1539, 1539, 1539, 1539, 1539, 1546, 1546, 1546, 1539, 1539, 1539, 1539, 1539, 1539, 1539, 1539, 1539, 1539, 1539, 1539, 1539, 1539, 1539, 1539, 1539, 1539, 1539, 1539, 1539, 1539, 1539, 1539, 1539, 1539, 1532, 1532, 1532, 1532, 1532, 1532, 1532, 1532, 1532, 1532, 1532, 1532, 1532, 1532, 1532, 1532, 1532, 1532, 1532, 1532, 1532, 1532, 1532, 1525, 1525, 1525, 1525, 1525, 1525, 1525, 1525, 1525, 1525, 1525, 1525, 1525, 1525, 1525, 1525, 1525, 1525, 1532, 1525, 1532, 1532, 1532, 1532, 1525, 1525, 1525, 1525, 1519, 1519, 1519, 1519, 1519, 1519, 1519, 1519, 1519, 1519, 1519, 1512, 1512, 1512, 1512, 1519, 1512, 1519, 1519, 1519, 1519, 1519, 1519, 1519, 1519, 1512, 1512, 1512, 1512, 1519, 1519, 1519, 1519, 1519, 1519, 1512, 1512, 1512, 1512, 1512, 1512, 1512, 1512, 1512, 1512, 1512, 1512, 1512, 1512, 1512, 1512, 1512, 1512, 1512, 1512, 1512, 1512, 1506, 1506, 1506, 1506, 1506, 1506, 1506, 1506, 1512, 1506, 1506, 1512, 1512, 1512, 1512, 1512, 1506, 1512, 1506, 1506, 1492, 1506, 1506, 1499, 1499, 1499, 1499, 1499, 1499, 1492, 1492, 1492, 1499, 1499, 1499, 1499, 1499, 1499, 1499, 1499, 1499, 1499, 1499, 1499, 1499, 1499, 1499, 1499, 1506, 1506, 1506, 1506, 1506, 1506, 1499, 1499, 1506, 1499, 1499, 1499, 1506, 1506, 1506, 1506, 1506, 1506, 1506, 1506, 1506, 1506, 1499, 1499, 1499, 1499, 1499, 1499, 1499, 1492, 1499, 1499, 1499, 1499, 1499, 1499, 1499, 1499, 1499, 1499, 1499, 1499, 1492, 1492, 1492, 1492, 1492, 1499, 1499, 1492, 1492, 1492, 1492, 1499, 1499, 1499, 1499, 1499, 1499, 1499, 1499, 1499, 1499, 1499, 1499, 1506, 1506, 1499, 1499, 1492, 1492, 1499, 1499, 1499, 1499, 1499, 1499, 1499, 1499, 1492, 1492, 1492, 1492, 1492, 1492, 1499, 1499, 1492, 1499, 1499, 1499, 1499, 1499, 1492, 1492, 1492, 1492, 1492, 1492, 1492, 1492, 1492, 1492, 1492, 1492, 1492, 1492, 1486, 1492, 1492, 1492, 1492, 1492, 1486, 1492, 1492, 1486, 1486, 1486, 1486, 1486, 1486, 1486, 1486, 1486, 1486, 1486, 1486, 1486, 1486, 1486, 1486, 1486, 1486, 1486, 1486, 1486, 1486, 1486, 1486, 1486, 1486, 1480, 1486, 1486, 1480, 1480, 1480, 1480, 1480, 1480, 1480, 1480, 1480, 1480, 1486, 1486, 1486, 1486, 1486
1574, 1574, 1574, 1581, 1574, 1574, 1574, 1574, 1574, 1574, 1574, 1574, 1574, 1574, 1574, 1574, 1574, 1574, 1581, 1581, 1581, 1574, 1581, 1581, 1574, 1574, 1574, 1574, 1574, 1574, 1574, 1574, 1574, 1574, 1574, 1574, 1574, 1574, 1574, 1574, 1574, 1574, 1574, 1574, 1574, 1574, 1574, 1574, 1574, 1581, 1581, 1589, 1581, 1574, 1581, 1581, 1581, 1581, 1574, 1574, 1574, 1574, 1574, 1581, 1574, 1574, 1574, 1574, 1567, 1567, 1574, 1574, 1574, 1567, 1567, 1567, 1567, 1567, 1567, 1567, 1567, 1567, 1567, 1567, 1567, 1567, 1567, 1567, 1567, 1567, 1567, 1567, 1567, 1567, 1567, 1567, 1567, 1560, 1560, 1560, 1560, 1560, 1567, 1567, 1567, 1567, 1567, 1567, 1567, 1567, 1560, 1560, 1553, 1560, 1560, 1553, 1553, 1546, 1546, 1546, 1546, 1553, 1546, 1546, 1553, 1546, 1546, 1546, 1546, 1539, 1546, 1546, 1546, 1546, 1546, 1546, 1546, 1546, 1546, 1546, 1546, 1546, 1546, 1539, 1539, 1539, 1539, 1539, 1539, 1539, 1539, 1539, 1539, 1539, 1539, 1539, 1539, 1539, 1539, 1539, 1539, 1539, 1539, 1532, 1532, 1539, 1532, 1539, 1532, 1539, 1539, 1539, 1532, 1532, 1539, 1539, 1532, 1539, 1539, 1539, 1539, 1539, 1539, 1532, 1532, 1532, 1532, 1532, 1532, 1525, 1525, 1532, 1532, 1525, 1532, 1532, 1525, 1525, 1532, 1525, 1525, 1532, 1525, 1525, 1525, 1525, 1525, 1525, 1525, 1525, 1525, 1519, 1519, 1519, 1519, 1519, 1525, 1525, 1525, 1519, 1519, 1519, 1519, 1525, 1525, 1525, 1525, 1532, 1532, 1532, 1532, 1532, 1525, 1525, 1525, 1519, 1519, 1519, 1519, 1519, 1519, 1519, 1519, 1519, 1519, 1512, 1512, 1512, 1512, 1512, 1512, 1512, 1512, 1512, 1512, 1512, 1519, 1512, 1512, 1512, 1512, 1512, 1512, 1512, 1512, 1512, 1512, 1512, 1512, 1512, 1512, 1512, 1512, 1512, 1512, 1512, 1512, 1512, 1512, 1512, 1512, 1512, 1512, 1512, 1512, 1512, 1512, 1512, 1512, 1512, 1506, 1506, 1512, 1506, 1506, 1506, 1506, 1506, 1506, 1506, 1506, 1506, 1506, 1506, 1506, 1506, 1506, 1499, 1506, 1492, 1492, 1492, 1492, 1492, 1492, 1492, 1492, 1492, 1492, 1492, 1492, 1492, 1492, 1492, 1492, 1492, 1492, 1492, 1492, 1492, 1492, 1492, 1492, 1492, 1492, 1492, 1492, 1492, 1492, 1499, 1499, 1499, 1499, 1499, 1499, 1499, 1499, 1499, 1499, 1499, 1499, 1499, 1499, 1499, 1499, 1506, 1506, 1506, 1499, 1499, 1499, 1499, 1499, 1499, 1492, 1492, 1492, 1492, 1492, 1492, 1492, 1492, 1492, 1492, 1492, 1492, 1492, 1492, 1492, 1499, 1499, 1492, 1492, 1492, 1492, 1492, 1492, 1492, 1492, 1492, 1492, 1492, 1492, 1492, 1499, 1492, 1492, 1499, 1499, 1499, 1499, 1492, 1492, 1492, 1492, 1492, 1499, 1499, 1492, 1492, 1492, 1492, 1499, 1499, 1492, 1492, 1492, 1492, 1499, 1492, 1492, 1492, 1492, 1492, 1492, 1492, 1492, 1492, 1492, 1492, 1492, 1492, 1492, 1492, 1492, 1492, 1492, 1492, 1492, 1486, 1492, 1486, 1486, 1486, 1492, 1486, 1492, 1486, 1486, 1486, 1486, 1486, 1486, 1486, 1486, 1486, 1486, 1486, 1486, 1486, 1486, 1486, 1486, 1486, 1486, 1486, 1486, 1486, 1486, 1486, 1486, 1486, 1486, 1486, 1486, 1486, 1486, 1486, 1486, 1486, 1480, 1480, 1480, 1480, 1480, 1480, 1480, 1480, 1480, 1480, 1480, 1480, 1480, 1480, 1480, 1480, 1480, 1486, 1480, 1480, 1480
1574, 1574, 1574, 1574, 1574, 1574, 1574, 1574, 1574, 1574, 1574, 1567, 1574, 1574, 1574, 1574, 1574, 1574, 1574, 1574, 1574, 1574, 1574, 1574, 1574, 1574, 1574, 1574, 1567, 1567, 1567, 1567, 1574, 1574, 1574, 1574, 1574, 1574, 1574, 1574, 1574, 1574, 1574, 1574, 1574, 1574, 1574, 1574, 1574, 1574, 1574, 1574, 1574, 1574, 1581, 1574, 1581, 1574, 1574, 1574, 1567, 1567, 1574, 1574, 1574, 1574, 1574, 1574, 1567, 1567, 1567, 1567, 1567, 1567, 1567, 1567, 1567, 1567, 1567, 1567, 1567, 1567, 1567, 1567, 1567, 1567, 1567, 1567, 1567, 1567, 1567, 1567, 1567, 1567, 1567, 1560, 1560, 1560, 1560, 1560, 1560, 1560, 1560, 1560, 1567, 1560, 1553, 1553, 1553, 1560, 1553, 1553, 1553, 1553, 1553, 1546, 1546, 1546, 1546, 1546, 1546, 1546, 1546, 1546, 1546, 1546, 1546, 1546, 1539, 1539, 1539, 1539, 1546, 1546, 1546, 1546, 1546, 1546, 1546, 1546, 1546, 1539, 1539, 1539, 1539, 1539, 1532, 1532, 1532, 1532, 1539, 1539, 1539, 1539, 1539, 1539, 1539, 1539, 1539, 1539, 1532, 1532, 1539, 1532, 1532, 1532, 1525, 1525, 1532, 1532, 1532, 1532, 1532, 1532, 1532, 1532, 1532, 1532, 1532, 1532, 1539, 1532, 1532, 1532, 1532, 1532, 1532, 1525, 1525, 1519, 1525, 1525, 1525, 1525, 1525, 1525, 1525, 1525, 1525, 1525, 1525, 1525, 1519, 1525, 1525, 1525, 1525, 1519, 1519, 1519, 1519, 1519, 1519, 1519, 1519, 1519, 1519, 1519, 1519, 1519, 1519, 1519, 1519, 1519, 1519, 1525, 1525, 1525, 1525, 1525, 1525, 1525, 1525, 1519, 1519, 1519, 1519, 1519, 1519, 1512, 1519, 1519, 1519, 1512, 1512, 1512, 1512, 1512, 1512, 1512, 1512, 1512, 1512, 1512, 1512, 1512, 1512, 1512, 1512, 1512, 1512, 1512, 1512, 1512, 1512, 1512, 1512, 1512, 1512, 1512, 1512, 1512, 1512, 1512, 1512, 1512, 1512, 1512, 1512, 1512, 1512, 1506, 1512, 1506, 1506, 1506, 1506, 1506, 1506, 1506, 1506, 1506, 1506, 1506, 1506, 1506, 1506, 1506, 1506, 1499, 1499, 1506, 1499, 1499, 1499, 1506, 1499, 1492, 1492, 1492, 1492, 1492, 1492, 1492, 1492, 1492, 1492, 1492, 1492, 1492, 1492, 1492, 1492, 1492, 1492, 1492, 1492, 1492, 1492, 1492, 1492, 1492, 1492, 1492, 1492, 1492, 1492, 1492, 1492, 1499, 1499, 1499, 1499, 1499, 1499, 1492, 1492, 1492, 1492, 1499, 1492, 1499, 1499, 1499, 1499, 1499, 1499, 1499, 1499, 1492, 1492, 1492, 1492, 1492, 1492, 1492, 1492, 1492, 1492, 1492, 1492, 1492, 1492, 1492, 1492, 1492, 1492, 1492, 1492, 1492, 1492, 1492, 1492, 1492, 1492, 1492, 1492, 1492, 1492, 1492, 1492, 1492, 1492, 1492, 1492, 1492, 1492, 1492, 1499, 1492, 1492, 1492, 1492, 1492, 1492, 1492, 1492, 1492, 1492, 1492, 1492, 1492, 1492, 1492, 1492, 1492, 1492, 1492, 1492, 1492, 1492, 1492, 1492, 1492, 1492, 1492, 1492, 1492, 1492, 1492, 1492, 1492, 1492, 1492, 1492, 1486, 1486, 1486, 1486, 1486, 1486, 1486, 1486, 1486, 1486, 1486, 1486, 1486, 1486, 1486, 1486, 1486, 1486, 1486, 1486, 1486, 1486, 1486, 1486, 1486, 1486, 1480, 1486, 1480, 1480, 1486, 1486, 1486, 1486, 1486, 1486, 1486, 1486, 1480, 1480, 1486, 1480, 1486, 1480, 1480, 1480, 1480, 1480, 1480, 1480, 1480, 1480, 1480, 1480, 1480, 1480, 1480, 1473, 1480, 1480, 1480, 1480, 1480, 1480, 1480, 1480
1574, 1574, 1574, 1574, 1574, 1574, 1574, 1574, 1574, 1574, 1574, 1567, 1574, 1574, 1574, 1574, 1574, 1574, 1574, 1574, 1574, 1574, 1574, 1574, 1574, 1574, 1567, 1567, 1567, 1567, 1567, 1567, 1567, 1567, 1574, 1574, 1574, 1574, 1574, 1574, 1574, 1574, 1574, 1574, 1574, 1567, 1567, 1567, 1567, 1574, 1567, 1567, 1567, 1574, 1574, 1574, 1574, 1574, 1574, 1567, 1567, 1567, 1574, 1574, 1574, 1574, 1574, 1567, 1567, 1567, 1567, 1567, 1567, 1567, 1567, 1567, 1567, 1567, 1567, 1567, 1560, 1560, 1560, 1560, 1560, 1560, 1560, 1560, 1560, 1567, 1567, 1560, 1560, 1560, 1560, 1560, 1560, 1553, 1553, 1560, 1560, 1560, 1560, 1560, 1560, 1560, 1553, 1553, 1553, 1553, 1546, 1553, 1546, 1546, 1546, 1546, 1546, 1546, 1546, 1546, 1546, 1546, 1546, 1546, 1539, 1539, 1539, 1539, 1539, 1539, 1539, 1539, 1539, 1539, 1546, 1539, 1546, 1546, 1546, 1546, 1546, 1539, 1539, 1539, 1532, 1532, 1532, 1532, 1532, 1532, 1532, 1532, 1539, 1532, 1532, 1532, 1532, 1539, 1532, 1532, 1532, 1532, 1532, 1532, 1532, 1525, 1525, 1525, 1525, 1525, 1525, 1525, 1532, 1532, 1532, 1532, 1532, 1532, 1532, 1532, 1532, 1532, 1532, 1532, 1532, 1532, 1525, 1525, 1525, 1519, 1519, 1519, 1525, 1519, 1519, 1525, 1519, 1519, 1519, 1519, 1519, 1519, 1519, 1519, 1519, 1525, 1525, 1525, 1519, 1519, 1519, 1519, 1519, 1519, 1519, 1519, 1519, 1519, 1519, 1519, 1519, 1519, 1519, 1519, 1519, 1519, 1525, 1519, 1519, 1519, 1519, 1519, 1519, 1519, 1512, 1512, 1512, 1512, 1512, 1512, 1512, 1512, 1512, 1512, 1512, 1512, 1512, 1512, 1512, 1512, 1512, 1512, 1512, 1512, 1512, 1506, 1512, 1512, 1512, 1512, 1512, 1506, 1512, 1512, 1512, 1512, 1512, 1512, 1512, 1512, 1506, 1506, 1506, 1506, 1506, 1512, 1506, 1506, 1506, 1506, 1506, 1506, 1506, 1506, 1499, 1499, 1499, 1499, 1499, 1499, 1499, 1499, 1506, 1506, 1506, 1506, 1499, 1499, 1499, 1499, 1499, 1499, 1499, 1499, 1499, 1499, 1492, 1492, 1492, 1492, 1492, 1492, 1492, 1492, 1492, 1492, 1492, 1492, 1492, 1492, 1492, 1492, 1492, 1492, 1492, 1492, 1492, 1492, 1492, 1492, 1492, 1492, 1492, 1492, 1492, 1492, 1492, 1492, 1492, 1492, 1492, 1492, 1492, 1492, 1492, 1492, 1492, 1492, 1492, 1492, 1492, 1492, 1492, 1499, 1499, 1499, 1492, 1492, 1492, 1492, 1492, 1492, 1492, 1486, 1486, 1486, 1486, 1492, 1486, 1486, 1486, 1486, 1486, 1492, 1492, 1492, 1492, 1492, 1492, 1492, 1492, 1492, 1492, 1492, 1492, 1492, 1492, 1492, 1492, 1492, 1492, 1492, 1492, 1492, 1492, 1492, 1492, 1492, 1492, 1492, 1492, 1492, 1492, 1492, 1492, 1492, 1486, 1486, 1486, 1486, 1486, 1492, 1492, 1492, 1492, 1492, 1492, 1492, 1492, 1486, 1486, 1486, 1486, 1486, 1486, 1486, 1486, 1486, 1486, 1486, 1486, 1486, 1486, 1486, 1486, 1486, 1486, 1486, 1486, 1486, 1486, 1486, 1486, 1486, 1486, 1486, 1486, 1486, 1486, 1486, 1486, 1486, 1486, 1486, 1480, 1486, 1486, 1486, 1486, 1480, 1486, 1480, 1486, 1480, 1480, 1480, 1480, 1480, 1480, 1486, 1486, 1486, 1480, 1480, 1480, 1480, 1480, 1480, 1480, 1480, 1480, 1480, 1480, 1480, 1480, 1473, 1473, 1473, 1473, 1473, 1473, 1473, 1473, 1473, 1480, 1480, 1480, 1473, 1473, 1480, 1480
1567, 1567, 1567, 1574, 1574, 1574, 1574, 1567, 1574, 1574, 1567, 1567, 1574, 1574, 1567, 1574, 1574, 1567, 1567, 1574, 1567, 1567, 1567, 1567, 1567, 1567, 1567, 1567, 1567, 1567, 1567, 1567, 1567, 1567, 1574, 1567, 1567, 1567, 1567, 1567, 1567, 1567, 1567, 1567, 1567, 1567, 1567, 1567, 1567, 1567, 1567, 1567, 1567, 1567, 1574, 1567, 1567, 1567, 1567, 1567, 1567, 1567, 1560, 1567, 1560, 1567, 1567, 1567, 1567, 1567, 1567, 1567, 1567, 1567, 1567, 1567, 1560, 1560, 1560, 1560, 1553, 1553, 1553, 1553, 1553, 1553, 1560, 1553, 1560, 1560, 1560, 1553, 1560, 1560, 1553, 1560, 1553, 1553, 1553, 1553, 1553, 1553, 1546, 1553, 1546, 1546, 1546, 1546, 1546, 1546, 1546, 1546, 1546, 1546, 1546, 1546, 1539, 1539, 1539, 1539, 1539, 1546, 1539, 1539, 1539, 1539, 1539, 1539, 1539, 1539, 1539, 1539, 1539, 1539, 1539, 1539, 1539, 1539, 1539, 1539, 1539, 1539, 1539, 1539, 1532, 1532, 1532, 1532, 1532, 1532, 1532, 1532, 1532, 1532, 1532, 1525, 1525, 1525, 1525, 1525, 1525, 1525, 1525, 1525, 1525, 1525, 1525, 1525, 1525, 1525, 1525, 1525, 1525, 1525, 1532, 1525, 1519, 1519, 1519, 1525, 1532, 1525, 1532, 1525, 1525, 1525, 1525, 1525, 1525, 1519, 1519, 1519, 1519, 1519, 1519, 1519, 1519, 1519, 1519, 1519, 1519, 1519, 1519, 1519, 1519, 1519, 1519, 1519, 1519, 1519, 1519, 1519, 1519, 1519, 1519, 1519, 1519, 1519, 1519, 1519, 1519, 1519, 1519, 1519, 1519, 1519, 1519, 1519, 1519, 1519, 1519, 1519, 1519, 1512, 1512, 1512, 1512, 1512, 1512, 1512, 1512, 1512, 1512, 1512, 1512, 1512, 1512, 1512, 1512, 1506, 1506, 1506, 1506, 1506, 1506, 1506, 1506, 1506, 1506, 1506, 1506, 1506, 1506, 1506, 1506, 1506, 1506, 1506, 1506, 1506, 1499, 1499, 1499, 1506, 1506, 1512, 1506, 1506, 1506, 1506, 1506, 1499, 1499, 1492, 1492, 1492, 1492, 1492, 1492, 1499, 1492, 1492, 1499, 1492, 1499, 1499, 1499, 1499, 1499, 1492, 1492, 1492, 1492, 1492, 1492, 1492, 1492, 1492, 1492, 1486, 1492, 1486, 1492, 1492, 1492, 1492, 1486, 1486, 1486, 1492, 1486, 1492, 1492, 1492, 1492, 1492, 1492, 1486, 1486, 1486, 1486, 1486, 1486, 1486, 1492, 1486, 1486, 1486, 1492, 1492, 1492, 1492, 1492, 1492, 1492, 1492, 1492, 1492, 1492, 1492, 1492, 1492, 1492, 1492, 1492, 1492, 1492, 1492, 1492, 1492, 1492, 1486, 1486, 1486, 1486, 1486, 1486, 1486, 1486, 1486, 1486, 1486, 1486, 1486, 1486, 1492, 1492, 1492, 1486, 1492, 1492, 1492, 1492, 1486, 1486, 1486, 1486, 1486, 1486, 1486, 1486, 1486, 1492, 1492, 1492, 1492, 1492, 1492, 1492, 1492, 1492, 1492, 1492, 1486, 1486, 1486, 1486, 1486, 1486, 1486, 1486, 1486, 1486, 1486, 1486, 1486, 1486, 1486, 1486, 1486, 1486, 1486, 1486, 1486, 1486, 1486, 1486, 1486, 1486, 1486, 1486, 1486, 1486, 1486, 1486, 1486, 1486, 1486, 1480, 1480, 1486, 1480, 1480, 1480, 1480, 1480, 1486, 1486, 1480, 1486, 1486, 1480, 1480, 1486, 1480, 1480, 1480, 1486, 1486, 1486, 1486, 1486, 1480, 1473, 1473, 1480, 1480, 1480, 1480, 1480, 1480, 1480, 1480, 1480, 1473, 1480, 1473, 1480, 1480, 1473, 1473, 1473, 1473, 1473, 1473, 1473, 1473, 1473, 1473, 1473, 1473, 1473, 1467, 1467, 1467, 1467, 1473, 1473, 1473, 1473, 1480
1567, 1567, 1567, 1567, 1567, 1574, 1574, 1567, 1574, 1574, 1574, 1567, 1567, 1567, 1567, 1567, 1567, 1567, 1567, 1567, 1560, 1560, 1567, 1567, 1567, 1567, 1567, 1560, 1560, 1560, 1567, 1567, 1567, 1567, 1567, 1567, 1567, 1567, 1567, 1567, 1560, 1567, 1567, 1567, 1567, 1567, 1567, 1567, 1567, 1567, 1560, 1560, 1560, 1567, 1567, 1567, 1567, 1567, 1567, 1567, 1567, 1560, 1560, 1560, 1560, 1560, 1560, 1560, 1567, 1567, 1567, 1567, 1560, 1560, 1560, 1560, 1553, 1553, 1553, 1553, 1553, 1553, 1553, 1553, 1553, 1553, 1553, 1553, 1560, 1560, 1560, 1553, 1553, 1553, 1553, 1553, 1553, 1546, 1546, 1553, 1553, 1546, 1553, 1546, 1553, 1553, 1546, 1546, 1546, 1546, 1539, 1546, 1546, 1539, 1539, 1539, 1539, 1539, 1539, 1539, 1539, 1539, 1539, 1539, 1539, 1532, 1532, 1532, 1532, 1532, 1532, 1532, 1539, 1539, 1532, 1532, 1539, 1539, 1539, 1539, 1539, 1539, 1539, 1539, 1532, 1532, 1532, 1532, 1532, 1525, 1525, 1525, 1532, 1525, 1519, 1525, 1519, 1519, 1519, 1519, 1519, 1519, 1525, 1519, 1519, 1525, 1525, 1519, 1525, 1519, 1525, 1519, 1519, 1519, 1519, 1519, 1519, 1519, 1519, 1519, 1519, 1525, 1525, 1525, 1525, 1525, 1525, 1525, 1519, 1519, 1519, 1519, 1519, 1519, 1519, 1519, 1519, 1519, 1519, 1519, 1519, 1519, 1519, 1519, 1519, 1519, 1519, 1519, 1519, 1519, 1512, 1512, 1512, 1519, 1512, 1519, 1519, 1519, 1512, 1512, 1512, 1512, 1512, 1512, 1512, 1519, 1519, 1519, 1519, 1512, 1512, 1512, 1512, 1512, 1512, 1512, 1512, 1512, 1512, 1512, 1512, 1512, 1512, 1512, 1506, 1506, 1512, 1506, 1506, 1506, 1499, 1499, 1499, 1499, 1506, 1506, 1506, 1506, 1506, 1506, 1506, 1506, 1506, 1506, 1506, 1506, 1506, 1506, 1506, 1499, 1499, 1499, 1499, 1506, 1499, 1499, 1499, 1499, 1499, 1499, 1499, 1492, 1492, 1492, 1492, 1492, 1492, 1492, 1492, 1492, 1492, 1492, 1492, 1492, 1492, 1492, 1492, 1492, 1492, 1492, 1492, 1492, 1492, 1492, 1492, 1492, 1486, 1486, 1486, 1486, 1486, 1486, 1492, 1492, 1486, 1486, 1486, 1486, 1486, 1486, 1486, 1486, 1486, 1486, 1492, 1486, 1486, 1486, 1486, 1486, 1486, 1486, 1486, 1486, 1486, 1486, 1486, 1486, 1492, 1492, 1492, 1492, 1492, 1492, 1486, 1486, 1486, 1486, 1486, 1486, 1486, 1486, 1486, 1492, 1492, 1492, 1492, 1486, 1486, 1486, 1486, 1486, 1486, 1486, 1486, 1486, 1486, 1486, 1486, 1486, 1486, 1486, 1486, 1486, 1486, 1486, 1486, 1486, 1486, 1486, 1486, 1486, 1486, 1486, 1486, 1486, 1486, 1486, 1486, 1486, 1486, 1486, 1486, 1492, 1492, 1492, 1486, 1492, 1492, 1492, 1486, 1486, 1486, 1486, 1486, 1486, 1480, 1480, 1480, 1486, 1486, 1486, 1486, 1486, 1486, 1486, 1486, 1486, 1486, 1486, 1486, 1486, 1486, 1486, 1486, 1486, 1486, 1486, 1486, 1480, 1486, 1486, 1480, 1486, 1486, 1486, 1480, 1480, 1480, 1480, 1480, 1480, 1480, 1480, 1480, 1480, 1480, 1480, 1480, 1480, 1480, 1473, 1480, 1480, 1473, 1473, 1480, 1473, 1480, 1480, 1473, 1473, 1473, 1473, 1473, 1473, 1473, 1473, 1480, 1480, 1480, 1480, 1480, 1473, 1473, 1473, 1473, 1473, 1473, 1473, 1473, 1473, 1473, 1473, 1473, 1467, 1467, 1467, 1467, 1467, 1467, 1467, 1467, 1467, 1467, 1467, 1467, 1467, 1467, 1473, 1473
1567, 1567, 1567, 1567, 1567, 1567, 1567, 1567, 1567, 1567, 1567, 1567, 1567, 1560, 1560, 1567, 1567, 1553, 1553, 1567, 1560, 1560, 1560, 1560, 1553, 1560, 1560, 1560, 1553, 1560, 1567, 1567, 1567, 1567, 1567, 1567, 1567, 1567, 1567, 1567, 1560, 1560, 1567, 1560, 1560, 1567, 1560, 1567, 1560, 1560, 1560, 1560, 1560, 1560, 1567, 1560, 1567, 1567, 1560, 1560, 1560, 1560, 1553, 1553, 1553, 1553, 1553, 1553, 1560, 1560, 1560, 1560, 1560, 1560, 1560, 1560, 1553, 1553, 1553, 1553, 1553, 1553, 1553, 1553, 1553, 1553, 1553, 1553, 1553, 1553, 1553, 1553, 1553, 1553, 1553, 1553, 1546, 1546, 1546, 1546, 1546, 1546, 1546, 1546, 1546, 1546, 1546, 1546, 1546, 1546, 1539, 1539, 1546, 1539, 1539, 1539, 1539, 1539, 1532, 1532, 1532, 1532, 1532, 1532, 1532, 1532, 1525, 1532, 1532, 1525, 1532, 1532, 1532, 1532, 1539, 1539, 1539, 1539, 1539, 1539, 1532, 1532, 1532, 1532, 1525, 1525, 1525, 1525, 1525, 1525, 1525, 1525, 1525, 1519, 1519, 1519, 1519, 1519, 1519, 1519, 1519, 1519, 1519, 1519, 1519, 1519, 1519, 1519, 1519, 1519, 1519, 1519, 1519, 1519, 1519, 1519, 1519, 1519, 1519, 1519, 1519, 1519, 1525, 1525, 1525, 1519, 1519, 1525, 1519, 1519, 1519, 1519, 1519, 1519, 1519, 1519, 1519, 1519, 1512, 1512, 1512, 1512, 1512, 1512, 1519, 1519, 1519, 1519, 1519, 1519, 1512, 1512, 1512, 1512, 1512, 1519, 1512, 1512, 1512, 1512, 1512, 1512, 1512, 1512, 1512, 1512, 1512, 1512, 1512, 1512, 1512, 1506, 1506, 1506, 1506, 1506, 1506, 1512, 1506, 1506, 1506, 1512, 1512, 1512, 1506, 1506, 1506, 1506, 1506, 1499, 1499, 1499, 1499, 1499, 1499, 1499, 1499, 1499, 1506, 1506, 1506, 1506, 1499, 1499, 1506, 1499, 1499, 1499, 1499, 1499, 1499, 1492, 1492, 1492, 1492, 1492, 1492, 1492, 1492, 1492, 1492, 1492, 1492, 1492, 1492, 1492, 1492, 1492, 1492, 1492, 1486, 1486, 1486, 1486, 1486, 1486, 1486, 1486, 1486, 1486, 1486, 1492, 1486, 1486, 1486, 1486, 1486, 1486, 1486, 1486, 1486, 1486, 1492, 1492, 1486, 1486, 1486, 1486, 1486, 1486, 1486, 1486, 1486, 1486, 1486, 1486, 1486, 1486, 1486, 1486, 1486, 1486, 1486, 1486, 1486, 1486, 1486, 1486, 1486, 1486, 1486, 1486, 1486, 1486, 1486, 1486, 1480, 1480, 1486, 1486, 1486, 1486, 1486, 1486, 1486, 1486, 1486, 1486, 1486, 1486, 1486, 1486, 1486, 1480, 1486, 1486, 1480, 1486, 1486, 1486, 1486, 1486, 1486, 1486, 1486, 1486, 1486, 1486, 1486, 1486, 1486, 1486, 1486, 1486, 1486, 1486, 1486, 1486, 1486, 1486, 1486, 1486, 1486, 1486, 1486, 1486, 1486, 1486, 1486, 1486, 1486, 1486, 1486, 1480, 1480, 1480, 1480, 1480, 1480, 1486, 1486, 1486, 1486, 1486, 1486, 1486, 1486, 1486, 1486, 1486, 1486, 1486, 1486, 1486, 1480, 1480, 1480, 1480, 1480, 1480, 1480, 1480, 1480, 1480, 1480, 1480, 1480, 1480, 1473, 1473, 1480, 1480, 1473, 1473, 1480, 1480, 1480, 1480, 1473, 1473, 1473, 1473, 1473, 1473, 1473, 1473, 1473, 1473, 1473, 1473, 1473, 1473, 1473, 1473, 1473, 1473, 1473, 1473, 1473, 1473, 1473, 1473, 1473, 1473, 1467, 1473, 1467, 1473, 1473, 1473, 1473, 1473, 1473, 1473, 1473, 1467, 1467, 1467, 1467, 1467, 1467, 1467, 1467, 1461, 1467, 1467, 1467, 1467, 1467, 1467, 1473
1560, 1560, 1560, 1567, 1560, 1567, 1567, 1567, 1567, 1567, 1567, 1567, 1567, 1560, 1560, 1560, 1553, 1553, 1553, 1553, 1553, 1553, 1553, 1553, 1553, 1553, 1560, 1553, 1553, 1553, 1560, 1560, 1567, 1560, 1560, 1560, 1560, 1560, 1560, 1560, 1553, 1553, 1560, 1560, 1560, 1553, 1553, 1560, 1560, 1553, 1553, 1553, 1553, 1553, 1560, 1560, 1560, 1560, 1560, 1560, 1560, 1553, 1553, 1553, 1553, 1553, 1553, 1553, 1553, 1553, 1553, 1553, 1553, 1553, 1553, 1560, 1553, 1553, 1553, 1553, 1553, 1553, 1553, 1546, 1546, 1546, 1546, 1546, 1553, 1553, 1553, 1553, 1546, 1553, 1546, 1553, 1546, 1546, 1546, 1546, 1546, 1546, 1546, 1546, 1546, 1546, 1539, 1546, 1539, 1546, 1539, 1539, 1539, 1532, 1539, 1539, 1539, 1532, 1532, 1525, 1525, 1525, 1525, 1525, 1525, 1525, 1525, 1525, 1525, 1525, 1525, 1525, 1525, 1525, 1525, 1525, 1532, 1539, 1532, 1532, 1532, 1532, 1532, 1532, 1525, 1525, 1525, 1525, 1525, 1525, 1519, 1525, 1525, 1519, 1519, 1519, 1519, 1519, 1519, 1519, 1519, 1519, 1519, 1519, 1519, 1519, 1519, 1519, 1519, 1519, 1519, 1519, 1512, 1512, 1519, 1519, 1519, 1519, 1519, 1512, 1519, 1519, 1519, 1519, 1519, 1519, 1519, 1519, 1519, 1519, 1519, 1519, 1519, 1519, 1519, 1519, 1512, 1512, 1512, 1512, 1512, 1512, 1512, 1512, 1512, 1512, 1519, 1512, 1512, 1512, 1512, 1512, 1512, 1512, 1512, 1512, 1512, 1512, 1512, 1512, 1512, 1512, 1512, 1512, 1506, 1506, 1512, 1512, 1512, 1512, 1506, 1506, 1499, 1499, 1499, 1499, 1506, 1506, 1506, 1506, 1506, 1506, 1506, 1506, 1506, 1506, 1506, 1499, 1499, 1499, 1499, 1499, 1499, 1492, 1499, 1499, 1499, 1499, 1499, 1499, 1499, 1499, 1499, 1499, 1499, 1499, 1499, 1499, 1499, 1499, 1492, 1492, 1492, 1492, 1492, 1492, 1492, 1492, 1492, 1492, 1492, 1492, 1492, 1486, 1486, 1486, 1486, 1486, 1486, 1486, 1486, 1486, 1486, 1486, 1486, 1486, 1486, 1486, 1486, 1486, 1486, 1486, 1486, 1486, 1486, 1486, 1486, 1486, 1486, 1486, 1486, 1486, 1486, 1486, 1486, 1486, 1486, 1486, 1486, 1486, 1486, 1486, 1480, 1486, 1486, 1486, 1486, 1486, 1486, 1486, 1486, 1486, 1486, 1486, 1486, 1486, 1486, 1486, 1486, 1486, 1480, 1486, 1480, 1480, 1480, 1480, 1480, 1480, 1480, 1480, 1480, 1480, 1480, 1480, 1486, 1486, 1486, 1486, 1486, 1486, 1486, 1480, 1480, 1480, 1480, 1480, 1480, 1480, 1480, 1480, 1480, 1480, 1480, 1480, 1480, 1480, 1480, 1480, 1480, 1480, 1480, 1480, 1480, 1480, 1486, 1480, 1480, 1480, 1480, 1480, 1480, 1480, 1480, 1486, 1486, 1486, 1486, 1486, 1486, 1486, 1486, 1480, 1480, 1480, 1480, 1480, 1480, 1480, 1480, 1486, 1486, 1486, 1486, 1486, 1486, 1486, 1486, 1486, 1486, 1486, 1480, 1480, 1480, 1480, 1480, 1480, 1480, 1480, 1480, 1480, 1480, 1480, 1480, 1473, 1480, 1480, 1473, 1473, 1473, 1467, 1473, 1473, 1473, 1473, 1473, 1473, 1473, 1486, 1473, 1473, 1473, 1473, 1473, 1473, 1473, 1473, 1473, 1467, 1473, 1473, 1473, 1473, 1467, 1467, 1467, 1473, 1473, 1473, 1467, 1473, 1473, 1473, 1473, 1467, 1467, 1467, 1467, 1467, 1473, 1467, 1473, 1467, 1473, 1467, 1467, 1467, 1467, 1467, 1467, 1467, 1467, 1467, 1461, 1461, 1467, 1467, 1467, 1467, 1467, 1467, 1467
1560, 1560, 1560, 1560, 1560, 1560, 1567, 1560, 1567, 1567, 1560, 1560, 1560, 1553, 1553, 1553, 1553, 1546, 1546, 1546, 1553, 1553, 1553, 1553, 1553, 1553, 1553, 1553, 1553, 1553, 1560, 1560, 1560, 1560, 1560, 1560, 1553, 1553, 1553, 1553, 1546, 1546, 1553, 1553, 1560, 1553, 1553, 1553, 1553, 1553, 1553, 1553, 1553, 1553, 1553, 1553, 1553, 1553, 1553, 1553, 1553, 1553, 1553, 1553, 1553, 1553, 1553, 1553, 1553, 1553, 1553, 1553, 1546, 1553, 1553, 1553, 1546, 1553, 1546, 1546, 1546, 1546, 1546, 1546, 1546, 1546, 1546, 1546, 1546, 1546, 1546, 1546, 1546, 1546, 1546, 1546, 1546, 1546, 1539, 1539, 1546, 1539, 1539, 1539, 1539, 1539, 1539, 1539, 1539, 1539, 1539, 1532, 1532, 1532, 1532, 1532, 1532, 1525, 1525, 1525, 1525, 1525, 1519, 1519, 1525, 1519, 1525, 1519, 1525, 1519, 1525, 1519, 1519, 1525, 1519, 1519, 1519, 1532, 1525, 1525, 1525, 1525, 1525, 1525, 1525, 1519, 1519, 1525, 1519, 1519, 1519, 1519, 1519, 1519, 1519, 1519, 1519, 1519, 1519, 1519, 1519, 1519, 1519, 1512, 1512, 1519, 1519, 1512, 1519, 1519, 1512, 1512, 1512, 1512, 1512, 1512, 1512, 1512, 1512, 1512, 1519, 1512, 1512, 1519, 1519, 1519, 1519, 1519, 1519, 1519, 1512, 1512, 1512, 1512, 1512, 1512, 1512, 1512, 1506, 1506, 1506, 1506, 1512, 1512, 1512, 1512, 1512, 1512, 1512, 1512, 1512, 1512, 1512, 1512, 1512, 1512, 1512, 1512, 1512, 1512, 1506, 1506, 1506, 1506, 1506, 1506, 1506, 1506, 1512, 1512, 1506, 1506, 1499, 1499, 1499, 1499, 1492, 1492, 1492, 1492, 1492, 1499, 1499, 1492, 1492, 1499, 1499, 1499, 1499, 1492, 1492, 1492, 1492, 1492, 1492, 1492, 1492, 1499, 1499, 1499, 1492, 1499, 1492, 1492, 1492, 1492, 1492, 1492, 1492, 1492, 1492, 1492, 1492, 1492, 1486, 1492, 1486, 1492, 1492, 1492, 1492, 1492, 1492, 1486, 1486, 1486, 1486, 1486, 1486, 1486, 1486, 1486, 1486, 1480, 1480, 1480, 1486, 1480, 1486, 1486, 1486, 1486, 1486, 1486, 1486, 1480, 1480, 1480, 1480, 1480, 1486, 1480, 1486, 1486, 1486, 1480, 1480, 1480, 1480, 1480, 1480, 1480, 1480, 1480, 1480, 1480, 1480, 1486, 1486, 1486, 1486, 1486, 1486, 1480, 1486, 1486, 1486, 1480, 1486, 1486, 1480, 1480, 1480, 1480, 1480, 1480, 1473, 1473, 1480, 1480, 1480, 1480, 1473, 1480, 1480, 1480, 1480, 1486, 1486, 1486, 1486, 1480, 1480, 1480, 1480, 1480, 1480, 1480, 1480, 1480, 1480, 1480, 1480, 1473, 1473, 1480, 1480, 1480, 1473, 1473, 1480, 1480, 1480, 1480, 1480, 1473, 1473, 1473, 1480, 1480, 1480, 1480, 1480, 1480, 1480, 1486, 1480, 1480, 1480, 1480, 1480, 1480, 1480, 1480, 1480, 1480, 1473, 1480, 1480, 1480, 1486, 1486, 1486, 1486, 1480, 1480, 1480, 1480, 1480, 1480, 1480, 1480, 1480, 1480, 1480, 1473, 1473, 1473, 1473, 1473, 1473, 1473, 1473, 1473, 1473, 1473, 1467, 1467, 1467, 1467, 1473, 1467, 1467, 1473, 1473, 1473, 1473, 1473, 1467, 1473, 1473, 1467, 1467, 1467, 1467, 1467, 1467, 1467, 1467, 1467, 1467, 1467, 1467, 1467, 1467, 1473, 1467, 1467, 1467, 1467, 1473, 1473, 1467, 1467, 1467, 1467, 1467, 1467, 1467, 1467, 1467, 1467, 1467, 1467, 1467, 1467, 1467, 1467, 1461, 1461, 1461, 1461, 1461, 1461, 1461, 1461, 1461, 1461, 1461, 1467, 1467
